ply
format ascii 1.0
element vertex 147
property double x
property double y
property double z
end_header
0.201281752265891 0.743226770873254 -0.135765206012561
0.156816505257546 0.829516685439477 -0.107088485055256
0.267337344385447 0.574857104333056 -0.192454704906064
0.164189120365811 0.581787504334490 -0.290276420998624
0.363136515470700 0.727289372945481 0.022647917797705
-0.013677635822096 0.777733206433237 -0.227888263466444
0.298530549937354 0.899994993869487 0.080909195905045
0.416752871319386 0.547744855070112 -0.038401491615963
0.461932294113834 0.708132673250801 0.128634645811715
-0.052155580837174 1.014092671443196 -0.049791369980182
0.317986058076292 0.393896074050924 -0.254106159411363
0.224266987294426 0.411473811756494 -0.347859809643361
0.029241361503252 0.510985872950453 -0.421974693426661
0.404016071370863 0.885787741151441 0.188868879755736
-0.206849207750269 0.790383164145140 -0.133723038073242
0.221282544983753 1.063447822569592 0.135477289081097
-0.135162951627695 0.549574677375986 -0.312200700212661
0.511049087660469 0.525712818028091 0.066417290764420
-0.227440592778504 0.697092603094857 -0.167164448835420
0.113433960519551 0.418756309754050 -0.451323355798292
0.460170463974173 0.361452434547035 -0.102179045370276
-0.247497344734934 0.519456516515411 -0.230160739135859
0.336495656959592 1.057866435901215 0.246806852264261
-0.028399760496361 0.403493796013823 -0.461711131238798
0.551728615516476 0.337913015119876 0.002013982374314
-0.148901000786206 0.371317764910239 -0.375190300826992
0.352045953169429 0.209379546448062 -0.317593315017490
0.261717810409672 0.229456390286926 -0.410350302697794
0.098041454377233 1.250364852843781 0.196639426978581
-0.385835149620757 0.826351428587336 0.030786861418758
0.614235321553000 0.667326744683636 0.315523329149624
0.160314664007507 0.250035831974340 -0.508816732359965
-0.403346561432945 0.644809279995083 -0.033488620289241
-0.249281179851425 0.332853298389126 -0.295652306830622
0.563027844281794 0.848928186820677 0.377379488767818
0.491609062283416 0.175577688304735 -0.166235508426317
-0.353612825356607 1.001584195033314 0.093372464035915
0.658669310870431 0.482464405631225 0.252283292164530
0.067874285430905 0.265308635921488 -0.588497271670213
-0.408385644852638 0.458952938377373 -0.098833901848967
0.449564091901202 0.586003629513251 0.476950256881928
-0.029730547942070 0.229585352089381 -0.522735474469636
0.391647869158231 0.763658697413891 0.537184490825949
0.582170789492240 0.151636998786347 -0.062218558664508
0.504756405846635 1.027169514516731 0.437806668323662
0.498680885447837 0.403583774290541 0.414732901834633
-0.137582313636305 0.186488303529600 -0.439594688251850
-0.282845569009098 1.209378172199226 0.168743600522078
0.696443398237440 0.293335212231242 0.187310694719625
0.343870291418242 0.537046241445172 0.565226902882049
-0.500349196010393 0.788470352728401 0.122633972806523
-0.510062146558789 0.603537811042216 0.057446638426683
0.197059921344822 1.328193219899789 0.336639697127293
0.279264325884896 0.709751862369178 0.623488180989390
0.324127454746960 0.935737392163665 0.595122463334475
-0.401744790999981 0.268703028215952 -0.165304951207670
-0.234012113065194 0.146314717968568 -0.360515685970864
0.397486647266927 0.357501723569803 0.504177493468381
0.367315019955661 0.022840966027504 -0.382456694157732
0.273036497559573 0.044626928906287 -0.474754690122653
-0.479841206729999 0.970021651815501 0.187019067222206
0.539360413303844 0.215783971382326 0.350329593444527
-0.509974865049307 0.415841963652173 -0.008361594427042
0.158983876561798 0.076127388049898 -0.569841075590803
-0.111999492321162 1.377284474112507 0.233682679320154
0.438879087753313 1.201511140675546 0.496596430953318
0.509781520860735 -0.011724607313610 -0.231263571744344
0.202016320931295 0.873204691069282 0.678056274165441
0.017150155545885 0.060864874309671 -0.580228851031309
0.440904239921714 0.171209303046725 0.440399939714069
0.725826910734128 0.106696558243561 0.122913411339808
0.172018417969951 0.454267795858657 0.688354257108122
-0.500278044166562 0.224708158170368 -0.075034048689315
0.601416752187490 -0.035843825030785 -0.127271100248569
-0.100131490521060 0.004470882060033 -0.502085181306284
0.127553170961607 0.540557710424879 0.717030978065428
-0.383572332422661 0.081400732597608 -0.230333014525698
0.238074010089508 0.285898129318458 0.631664758214619
0.569802587279608 0.029507955048797 0.286097052405706
-0.415200721755837 1.262308771469675 0.291798272774647
0.101342754562184 -0.031364688886733 -0.609577513402940
-0.199952217972056 -0.038201809634294 -0.424002841576991
0.078775230324774 1.060121721343472 0.739218412062925
-0.405101373673215 0.636108297087026 0.573365846503102
-0.512717398223024 0.666341308990852 0.470949583876737
0.058359406867425 1.507092022472427 0.394441481009664
-0.522430348771421 0.481408767304666 0.405762249496897
0.184691719132190 1.206064176162239 0.684955308197506
-0.422612785485403 0.454566148494773 0.509090364795103
0.364524453853669 1.370969590873148 0.553372999960950
-0.081418915133113 0.725133696428599 0.774328093140501
0.472342838230957 -0.014665443195575 0.376343476658028
0.288722723780353 0.104937099036327 0.570013303709321
-0.372879049409065 0.811341063533005 0.635951449120259
-0.236112542046208 0.501424189130542 0.690396425047441
0.259298448401062 -0.133629983559459 -0.537744290736984
-0.492209408942631 0.847892608077951 0.535334678292419
-0.675573264329942 0.528532379540436 0.221058896746520
-0.673414301430326 0.715876504168919 0.286823566926116
0.365531184839169 -0.163762252098781 -0.447948261852495
-0.256703927074444 0.408133628080260 0.656955014285264
-0.522343067261938 0.293712919914623 0.339954016643171
-0.427651868905096 0.268709806877064 0.443745083235377
-0.481032081471312 0.037227334353236 -0.140086590273376
0.128824129400741 0.232578099919996 0.705679032083350
-0.049042626787166 0.428523802018743 0.768067189615530
-0.670295010809319 0.339456550555399 0.154951128535371
-0.663509834182822 0.901454138702171 0.352243889111316
0.746196732205649 -0.080912045500331 0.057855973254969
0.516422374713393 -0.201974517475031 -0.297734621103047
-0.276760679030873 0.230497541500814 0.593958723984824
-0.302111793061556 1.019135040698917 0.711322585606422
-0.352133734113418 -0.104474013644693 -0.294389477581739
-0.327308263416271 1.465590903593892 0.366195524231017
-0.040053623592445 -0.165842810517964 -0.559668569951021
0.188901996329356 0.062264407342000 0.648095643438614
-0.512646246379193 0.102579114432818 0.273281562380899
0.589048549974858 -0.157972868768335 0.221044510821644
-0.421011015052439 0.078459896715642 0.377274033876674
0.322782618873490 -0.079579428566536 0.506526148103194
-0.170527942592765 0.200365272961492 0.683754752869313
0.611113573070235 -0.226977630512591 -0.193943554510842
-0.645191785938809 1.084855901804321 0.417200045405178
-0.131265716373620 1.187041342612197 0.776261664404498
-0.657426226397353 0.147647334902364 0.088154488877361
-0.427568923968469 1.140179727732125 0.640113883844860
-0.278544514147365 0.043894323374528 0.528467156290062
-0.149303504281212 -0.219162839916426 -0.485654296082289
0.490515296808277 -0.201967738813919 0.311315413340000
-0.151115306482500 1.611515045161290 0.423616912627002
0.045991204654794 1.384962978734877 0.742757092079877
-0.450589907495548 -0.149048681980293 -0.204319131312198
0.266911722994559 1.557316941619454 0.615245419889712
-0.184265991751277 0.022108360495746 0.620765152254983
-0.012572248753888 0.098099978288765 0.755587975535270
0.226352819444602 -0.119753014127568 0.585605150384180
-0.493400283683944 -0.084901709384314 0.208229020796837
-0.402838556475119 -0.108842398902702 0.312245970558646
0.071620350262411 0.005870415092362 0.726239313163639
-0.617355499092338 1.265310963532964 0.481460986458933
0.345474432882740 -0.341398338678227 -0.510944552152934
-0.637056404925832 -0.039961268841528 0.023097050792521
0.759065516617615 -0.272721261153366 -0.008940666403041
-0.263275447361133 -0.142644257046029 0.463603777149820
-0.070213370753501 -0.009392098647865 0.715851537723133
0.338051685659722 -0.266118008987093 0.441662768962951
-0.339676465628903 1.343461859856343 0.714511135301231
