ply
format ascii 1.0
element vertex 508
property double x
property double y
property double z
end_header
-0.094582540523598 -1.479543796580304 -0.884314250927335
0.033671421203610 -1.595148221823998 -0.813887843852513
-0.262366777237167 -1.268380588783746 -0.857644837233041
0.045885152704547 -1.444564325023427 -1.012361073007462
-0.111984170552812 -1.377358922451100 -1.141349828289710
-0.243087411083030 -1.446271713528723 -0.615082587076631
-0.311271140375328 -1.283933802392628 -0.636699341449640
-0.167565711574170 -1.241504453234433 -1.186188387436743
0.189569436869794 -1.525656988301081 -0.991229291387086
-0.421898146621817 -1.158157592704193 -0.707035771443541
-0.348746603933377 -1.213486558800944 -1.008307678620106
0.142284858005332 -1.217368975972448 -1.134445403219877
-0.079369955138023 -1.610086123570525 -0.451638898231256
0.078423561158093 -1.574762682096412 -0.619900634322053
0.235558270929620 -1.407719571127978 -0.962879534700105
0.023963934640851 -1.130712851389122 -1.142212065882102
-0.399358886899269 -1.388108426558119 -0.462267282908855
-0.392889243272040 -1.088356851262676 -1.148576707393838
-0.185260716861080 -1.507855633845457 -0.397634604868551
-0.490586285682724 -1.236959187199884 -0.505873455785576
0.326217180465325 -1.635938257926338 -0.840352452454844
-0.165798061817357 -1.006004511286827 -1.217315742398643
-0.549667815709727 -1.105315478643260 -0.806172061055161
0.441656558689632 -1.464495721544844 -0.911856658657524
-0.525801963560453 -0.925673113158611 -0.940997514778724
0.079849400748358 -1.681334523366655 -0.373566099580731
0.281548827360431 -1.626569625378983 -0.612648816522446
0.397883448670020 -1.196828850320637 -1.076825899648150
-0.601737176850724 -1.180474572860785 -0.610312661311704
0.139399591364638 -0.983247134527238 -1.218068706279208
-0.090046493622095 -1.567751424805983 -0.292262511054926
-0.512611715983589 -0.937729595959579 -1.219560549336433
0.143552724450412 -0.859879420633383 -1.251619329254193
0.534997289223647 -1.233460836941359 -1.002228928150714
-0.494264863417108 -1.318093493019578 -0.287188280830885
-0.300589553456787 -1.450436216316143 -0.173409162527051
0.483546020899412 -1.759533124501814 -0.694339702182662
-0.307357777351072 -0.853877539617699 -1.226461308751286
0.484858241552470 -1.530419716725002 -0.843467098904009
-0.702671021128571 -0.847082964424571 -0.723573115233956
-0.611421934113775 -0.762837626440483 -0.936706763155112
0.206148842802951 -1.678432793718715 -0.293611282671191
-0.748614828589349 -0.911581515821040 -0.613615564932495
-0.139054330491809 -1.537205145868811 -0.087468513260826
0.031018780174118 -0.719651558774162 -1.163792678978746
0.423983964805514 -1.684289658055168 -0.382889208852141
0.629246863072751 -1.357732599002341 -0.924312096303267
0.458678163002790 -0.935591371071985 -1.150082374011266
0.042954304700921 -1.534594299601514 -0.151008735496079
0.533635947291933 -1.053408953526746 -1.043606515360132
0.285980073598036 -0.777433043345690 -1.137772709455362
-0.580845300927590 -0.726674753991357 -1.130574456074697
-0.747112811993562 -1.045403766609214 -0.320045618082233
-0.334858842930244 -0.660183825912767 -1.199445640506864
0.591840386731331 -1.686738850668407 -0.582959783003998
0.699951093217094 -1.476484149261682 -0.678791990278661
-0.547171879870845 -1.292903882388394 -0.049818176633374
0.157695293357608 -0.709812578604245 -1.266040580085617
-0.598954339016286 -1.142779909492325 -0.124817442814532
-0.084356115777582 -1.481142758793266 0.030765009364334
-0.123246071873736 -0.563393979176190 -1.195134307871291
0.639288922952501 -1.091383916111910 -0.862652934041297
-0.764480107609147 -0.731910822959295 -0.755546292342733
-0.357740811315567 -1.333228994704278 0.013623587910020
-0.778169420266760 -0.857547943138052 -0.493744665908578
0.720751945298528 -1.332661313946949 -0.669381803740189
-0.645422425650572 -0.621641657893782 -0.951129155669497
0.361498829172008 -1.567557754152714 -0.089415624290426
-0.748211402058052 -1.074855125658367 -0.155521161991373
0.554989093619633 -1.692650325467123 -0.263411099187598
0.218110108495707 -1.546281842038511 0.068055998850873
-0.816613220424640 -0.884559087050097 -0.410008829016828
0.526183852429235 -0.730707896951653 -1.201061085862014
0.025997087165797 -0.470885729875879 -1.229308057079488
0.676625109499655 -0.822694898152446 -1.147508552992090
-0.621069544010232 -0.572374542267550 -1.107303891813808
0.777415466059537 -1.677369959383471 -0.444790880245366
-0.467613600099102 -0.524463368934276 -1.252469436770078
0.871312454453293 -1.494995911165848 -0.533652637344378
-0.181896755985152 -1.472135772568937 0.236620397790883
0.813773553292831 -1.135000350814174 -0.783774120112462
0.811660092561378 -0.813807508941331 -1.012788972637491
-0.568276837233975 -1.191641572265636 0.041887081349592
-0.174465948253278 -0.472831540422514 -1.270560016573687
0.024420571607460 -1.476333028245181 0.197637658472107
-0.764532037524471 -0.944252625993226 -0.201374658147796
-0.533041960334477 -1.355370150966814 0.150402658772532
0.929302316694845 -1.340673392455560 -0.622362701382635
-0.801595374269998 -0.498561530009425 -0.651037846662521
-0.861651843826479 -0.608648178701104 -0.522515825756819
0.308719054039514 -0.502598302346612 -1.255514521379279
0.444202336505896 -1.583662951108993 0.072081330890042
0.601696753969807 -1.642291020184769 -0.125575052546104
-0.791428778885656 -0.524104448303389 -0.951808657721082
-0.037916387622713 -0.371498833331212 -1.234818297373976
-0.939304885905279 -0.677404292128642 -0.328773700187013
0.396086179847177 -1.529400594076304 0.143497549163417
0.874367928307879 -0.844869492411160 -0.829261122536124
0.845222256313867 -1.648103877494432 -0.254927057864017
-0.315228442393033 -1.380297063006788 0.294402123295831
-0.869265855274867 -0.925518684102699 0.037173837431102
1.033977210494965 -1.149323922155843 -0.619015540351444
-0.059825681018432 -1.385683213881233 0.292606375147246
-0.715937046111913 -0.326410208478014 -1.172973093317124
0.669803889251349 -0.574754239958702 -1.130233204434535
0.986632307945332 -1.517528935582647 -0.372549551475521
-0.580771795749562 -0.303317976923973 -1.110509337915544
0.562173581881681 -0.462014939355019 -1.203224546220336
-0.953943015826865 -0.751334113286432 -0.126810070199201
0.821768041309295 -0.603613453160387 -0.997454386675323
-0.323655903102243 -0.227574576655223 -1.223127309445314
0.128770770793565 -0.229263527375228 -1.203210870774547
0.230861034357157 -1.363031599200491 0.402753133517758
1.059267201495151 -1.190475612183651 -0.421927379563340
0.508484150672369 -0.301288646073787 -1.268613960047164
-0.578579490408464 -1.230129038240939 0.365744836992352
-0.843595578905683 -1.068676273238512 0.180680406582315
-0.947384669068304 -0.427050245984550 -0.637153855341316
-0.176081442637616 -0.128249402319190 -1.246423193812640
0.746706566968619 -1.615715470127045 -0.017945171093768
0.637110270273886 -1.503053132121476 0.178338888332701
-0.947663333860471 -0.474676103027617 -0.517269958511176
0.990616452153972 -0.888342647677781 -0.683756168973451
-0.967608238710410 -0.777172728057728 0.032480965995775
-0.898108626174317 -0.323217327147438 -0.850586681823041
-0.862306077241731 -1.083261873974067 0.157348050199520
0.989578629390837 -0.637228715600172 -0.837273696836451
-0.237497559239824 -1.304291084626764 0.508020536048271
0.980211330044970 -1.561574417392539 -0.112509925438361
-0.950219886846129 -0.562650752859604 -0.356981558777773
1.143908801147592 -1.096284286172316 -0.409615345853871
0.375188816477847 -1.350967802384409 0.338483231579676
1.002071417428596 -1.427691829028598 -0.162180302613876
0.361550202714116 -0.180191417629448 -1.291216594907656
-0.462545745076457 -1.310931459434822 0.495065761011458
0.043108987923101 -1.333572285915669 0.509120466264299
-0.725478686291794 -0.178434217166853 -1.011805736242729
-0.611768974913815 -0.160604480394541 -1.113425782296461
0.064124260238751 -0.091436531618920 -1.247437448397824
0.687167773169896 -0.351332043661600 -1.123428536869612
-0.962999334873666 -0.555693050902271 -0.194621987811860
0.841049019706776 -0.454465859376704 -1.053369376582903
-0.358123981572059 0.000966392678061 -1.160619131994152
1.151528149432262 -1.225075220371591 -0.219617138122616
-0.972852244649232 -0.841706421473580 0.130582318751284
0.257371681701259 -1.301325118441442 0.542931624751345
1.073180940478911 -0.674108754887777 -0.670132913842350
0.785505512566661 -1.473592388014568 0.155301184500444
1.147761295753302 -0.816649138553198 -0.548124564333106
-0.223713868716569 0.018118370791687 -1.129380045583060
0.632548399605499 -1.343496470140693 0.418329681557590
-1.072953820469623 -0.697459774677013 0.047197763625729
0.195333305543317 -0.014005978873904 -1.280420973142520
1.012033490651378 -0.519864918622629 -0.871227597431354
0.518071676363179 -0.125260254984381 -1.267908165537261
1.019970078069800 -1.504307507348174 0.053379730446232
-1.016505732019098 -0.146484650366814 -0.672147779630352
-0.411891761662508 -1.234533456812440 0.598662926144688
-0.082441259350910 -1.172402380271639 0.652303645713207
-0.999104010449112 -0.261374096409588 -0.439582616725086
-0.800198941495190 -1.163678366972751 0.467825478854730
1.170840214785283 -0.981876656532795 -0.301717612811124
1.077184907412294 -1.314796234857811 -0.050157507913488
-0.899364488505686 -0.123782988531284 -0.861267082813640
0.435297197387161 -1.234421605280338 0.454357208015550
-1.099129273787470 -0.358699673997886 -0.313923823964261
-0.011097458699177 0.115744823140121 -1.221962028716022
0.094115865124816 -1.259097546691278 0.579543189832105
-0.577539420293712 -1.165297508542203 0.642862370499412
-0.805790706049128 -0.037135554480548 -0.963848911587400
-0.690396626233465 0.104959248579989 -1.086890942315518
-0.897203469826693 -0.959893844746837 0.419964813520129
-1.058062235772205 -0.746610823298556 0.142496168451313
1.233084245272569 -1.059631004399527 -0.087708521206796
-1.035641931228489 -0.372852229868777 -0.112729314050095
0.369106420531951 -0.016675091228273 -1.220660909717213
-0.387904102767181 0.110296331456183 -1.148379733755934
0.650513927233636 -1.277503726280547 0.486694791145367
1.202685627493586 -0.552418433420128 -0.616023353043406
1.178591200928369 -0.539919691735418 -0.832159789254314
0.940532221493471 -0.284270556610760 -1.078224741580348
0.878247585014849 -1.311497409314423 0.327219695919030
0.740684377562892 -0.093423256662436 -1.169884267171559
1.199592084393323 -0.653465148101471 -0.398776414453318
1.125179765213951 -1.395948761938337 0.251752622014049
0.179469660011577 0.113858040900947 -1.222088669742254
0.470319181929736 -1.145782073626618 0.561538628089500
0.748178774843274 -0.107551874543749 -1.233103191592614
-0.273517538805089 0.165973953899612 -1.151649337504752
-1.122464720149674 -0.481224844456027 0.023815240599614
0.142362402290277 -1.151123773742475 0.683733667162612
1.117405649558478 -1.215420740735013 0.143668096163841
1.179251608258975 -0.796388935557201 -0.224795048683200
-0.250667105048723 -1.183049165910712 0.708150033586422
1.072334591976819 -0.338600069223504 -0.942310046006988
-0.553234104730501 -1.128183929835235 0.754721645491363
-1.083971912655866 -0.765491365081799 0.348410262886915
-1.027244663141277 -0.047921503861215 -0.588030747919528
1.213928935521411 -0.902702334673879 -0.010196500094896
-1.002628346287311 -0.055321517096084 -0.394649350369419
0.341510761925585 -1.103820066412313 0.767139333785575
-0.042289383670924 0.230552334995522 -1.127123393939615
-0.973446127338657 0.063884492577952 -0.810322606557718
-1.119276388668173 -0.204513545591868 -0.192064158878052
0.349993780997977 0.180061764392221 -1.155313844255564
0.567550218539020 0.037563468311741 -1.270057006760203
0.957968536572737 -1.251540051110478 0.512029886296499
1.042887031719182 -1.207851131400199 0.300508915859478
-1.112847258833256 -0.536712469837609 0.229193565646396
-0.960633793883332 -0.915255167816253 0.675292539125347
0.643892173755644 -1.117405047625400 0.608510454450531
-0.296904504636073 -1.085393237510934 0.800925780195111
1.263436364549343 -0.439679791052488 -0.678874052494170
-0.902810154167540 0.119310552094340 -0.955619657397548
-0.655004477270532 0.161659407707171 -0.948714278383020
1.231946110766907 -0.480080830181123 -0.376763970425885
-0.727738459595527 -1.100723171624509 0.786298947194578
-0.024340564579289 -0.994640145512132 0.812997617631215
-1.083950557974607 -0.175727741858212 -0.021784937815436
1.236596863565258 -0.765190149298977 -0.021112290583400
1.170437676554858 -1.031058835350260 0.261134928643896
-0.453473264284191 0.251139403571295 -1.025096020426133
1.252453021040911 -0.239142819963016 -0.780863273828461
0.526756906189843 -0.995057780378061 0.718566153698864
0.055829253121956 0.295677914380375 -1.181747492322338
0.073450492130078 -0.934229738732821 0.798189307216021
0.961427010233504 0.013531093445852 -1.083139053203882
-0.995429184405643 -0.796695829810276 0.529070371589301
-0.256569154559370 0.400458952246808 -1.027738909980153
1.226646958650995 -0.721049506637396 0.080720789115696
-1.084657028960655 -0.347646728574136 0.140333345935029
-1.183356534089210 -0.566068917155882 0.457129913053384
0.522156331592995 0.274352359980086 -1.235720683901357
1.225790593776735 -0.440559896850239 -0.330737739218668
0.247182471696420 -0.846568511167418 0.791976844137929
1.122628768284491 -1.073994225613470 0.400428212435952
0.861204951422619 -1.071530101852653 0.566102791214536
1.166776679101294 -0.035487186366805 -0.973560314176907
1.216601745967605 -0.477433626107376 -0.157506111014441
0.717455357475345 -0.887785553643330 0.722528237596040
0.809994405578964 0.166661824451340 -1.232643933304179
0.273930448501658 0.322365734138861 -1.132778739011336
-1.058428655126217 0.101254830987251 -0.546829375780804
-0.169892729105683 0.396574481284072 -1.075416708244751
-1.098861920767520 0.021270119404789 -0.271667381758706
-0.506446843801126 -0.885606883578348 0.981434467127080
-0.272357460399946 -0.934994508562568 0.932360103011326
-0.622524902414646 -1.029972568291696 0.827165209788201
-1.052575817635631 0.209136522298342 -0.746283065089074
1.241974295927346 -0.896494188028264 0.360667934480275
1.312751326325020 -0.613042106137574 0.036729359095948
-1.100748564242052 -0.298226145139754 0.368110165382776
-1.133475829323436 -0.019649658215453 -0.095614190243357
-0.114120140264042 -0.885477975422052 0.892008802955458
0.561003531448641 -0.801331992186929 0.850585725911251
1.276127231691213 -0.149978371747559 -0.661824793354339
-0.941540512675815 0.301809580135856 -0.907826071503641
-0.702717775923302 0.458436408239596 -0.939925866728594
0.083583854200886 -0.790997785786961 0.901540476102871
-1.089293649035764 -0.093222129536703 0.078593966239715
-1.074533365557782 -0.665025906224009 0.599351850242147
1.195062146262005 -0.643913653545526 0.279990482815280
0.025216539314286 0.551094175885274 -1.109321426623788
-0.532460673037448 0.424278439069277 -0.953253468209095
1.290384110618520 -0.080279356133283 -0.797845647634352
0.708975713179809 0.301768243695980 -1.192786372749878
1.175749260779918 -1.017486319168668 0.571534042866852
1.244494545932239 -0.216860159303344 -0.416615966923811
0.880580411858168 -0.938187009715601 0.711258103199060
0.447222275127910 0.417007688337149 -1.170456293350123
1.283350894663894 -0.294619188919621 -0.211941019707419
1.293704354875353 -0.095464374795105 -0.598050278334616
0.278742993048752 -0.779414061117255 0.928864926007611
-0.960538532145941 -0.861285062402179 0.838660398948604
-0.374805656611594 0.517031427348898 -1.006774051315018
-1.140187901401033 -0.444617967827445 0.522841608121420
1.293202090775734 -0.320529613137901 -0.096772576283960
0.691617308105961 -0.819049742994345 0.829774549929284
-1.190904748222076 -0.149801555259247 0.177711216934475
1.124193031787733 -0.741952198851716 0.466581577085438
-0.498958981256673 -0.741681078568753 1.073010052764381
1.238936589197571 -0.370047768589206 0.170149637218607
-0.315542088452721 -0.734509229643063 1.045227876339740
0.153705971382547 0.554042132466816 -1.040541544168424
-0.689549073075385 -0.899681205507282 1.031065244879726
1.042038115338601 0.158404419318937 -1.092092340474498
-0.085600158650626 -0.679074682453943 0.961760144891022
0.505066881448213 -0.614424136832707 0.873814786105734
-0.106952858852781 0.580299952762152 -1.022038285522071
-1.125026510733272 0.290198763559510 -0.355248790261732
1.160918277387222 0.165426891598994 -1.084789639012402
-1.077823188415989 0.246700722512920 -0.268908295116584
-1.235656792442985 -0.126628677932018 0.372687194014079
-0.997042344202317 0.378629708061684 -0.601210275991501
1.250251298632670 -0.405702443369849 0.372040617413900
0.121271863090821 -0.658306654303462 1.006409709657822
1.071715472547160 -0.801560146341447 0.628057922753606
-1.110845717441580 0.131787303608976 -0.061913333433263
-1.083019373061123 -0.785519868923048 0.876237470544680
0.640019872095189 0.438695231204900 -1.118340752136423
0.928944554765599 -0.760698762917696 0.787476360811503
-1.204502726099686 -0.518494025358791 0.726689352507857
-1.003522096681723 0.548212028310441 -0.781801848711935
1.243935404615170 0.006667778980198 -0.302690509521133
0.828932701046104 0.346125800957654 -1.192900635740931
-0.750885961931946 0.516472875220562 -0.784898551735657
1.326532487929721 -0.066583665926017 -0.130937306589463
0.074851124957669 0.732847211958352 -1.047915245449821
0.274070399187377 -0.606499022259676 0.964805737551198
1.311164511367011 0.017636099917017 -0.468843600129144
-1.183941249221213 0.115514860888057 0.161211614033252
0.719200300952843 -0.662260890459121 0.949805540265193
1.254281947303150 -0.184842962510871 0.107743093474603
0.424869431224787 0.648928839073654 -1.045228157459680
-0.580695189460711 0.591644061812656 -0.851859325314251
1.105204384789095 -0.531045597964599 0.499804438591264
1.318535910191696 0.109543106170941 -0.703274171631727
1.276918647986037 -0.266295071349567 0.188695276663092
-1.121434353470747 -0.217062114171735 0.554673172238100
-0.498982581656719 -0.583495975554640 1.089260087309527
-0.275611721152989 -0.608432628906038 1.068056968401391
-0.363004009014936 0.780495825764352 -0.852451481773471
-1.144021867223552 0.013318206348508 0.327578042977309
0.442216333012267 -0.504133243222616 0.974452590515804
1.307108860481869 0.252517790448817 -0.819720108339253
-0.699680051295090 -0.641513160147347 1.047633416531168
-0.211132151773915 -0.530505475147558 1.078515635329396
0.160519492442394 0.670238423132482 -0.998856026659528
1.221962347146054 -0.222117776506405 0.413099031676170
1.048304356374409 -0.589039468745198 0.684264556678753
-0.884876904122493 -0.712952826817453 1.028308124196335
-0.009395155643979 -0.386421044373328 1.090162059946607
0.909242620422808 -0.517732981243226 0.845666871602263
-0.244169206912111 0.730578328170076 -0.866013951340313
0.851785656653910 0.564659832550188 -1.128838939794540
-1.068374597350986 -0.742911102955112 0.992076781085085
-1.108319690408118 0.009678097948468 0.591632352719726
1.297259662286857 0.159986643878994 -0.175322604386387
1.270184150952120 0.116333482972826 -0.084961180037218
-1.134088584274156 0.486211452743247 -0.267284190800432
-1.121636212566166 0.361276333085914 -0.165869299408160
0.535658423484336 0.715246616674271 -1.112638918652121
0.672432496592038 -0.391874442094463 1.004091245128310
1.215206956932165 0.211040207491105 -0.344751338579148
0.199815340799337 -0.326617880143992 1.010378647560392
1.195291342289747 -0.019377058219459 0.166708501669476
-1.013497140731545 0.647717945249749 -0.533568093600730
1.067348086468301 -0.430787643308018 0.577839466099841
-1.179008920907747 -0.394388924153576 0.880744152443710
-1.117582359997921 0.341037259702219 0.092692715608962
1.310733275339724 0.223673469407029 -0.631242205709894
1.211308587116855 -0.058997824535871 0.269856924251828
-0.029289552544535 0.847188354976319 -0.857404653262303
0.394462932062856 0.760965808640622 -0.980958626297669
-1.061714927582900 0.675123409101263 -0.765501951110212
-0.818210328635875 0.720288702495684 -0.700439942261932
1.154213282478834 0.433840924480103 -1.025575335276730
-1.125065685633584 0.328580638108412 0.314153007645286
-0.562495126866318 -0.420782069203240 1.108055480639740
-1.139919306600552 -0.565507576798961 1.005012704778150
-0.440636195504506 -0.396524082633839 1.100467253735573
-0.731459637812589 -0.444229636162771 1.101824122257014
0.327000844803397 -0.325671148995089 1.115654523109728
0.062038506831239 0.317990868529338 0.783407497576133
-1.303484301797974 -1.972572826609069 1.978541716850404
-0.032620336843403 1.077013799764673 0.941512318395243
2.087499775760318 -1.104046847385080 1.113786524493465
0.287751091292137 0.233735219104876 -0.389374083704930
2.777577278458042 0.835020263415446 -0.666675457278995
-1.133051005305406 1.439573618328072 -0.446536724213245
-1.672196598067380 2.467519778845539 2.047985508123681
0.442302751487552 0.259150564526603 0.062025650500526
-0.379308848119994 -0.445206981910644 -1.413940685741282
-0.670715162259069 -1.560330070008823 -0.427542843380229
-0.586513178798516 -0.386456712717934 -0.537585187254348
0.856028809353121 -1.339236683854761 -0.305520643852566
-1.146474547992394 -1.313037524444806 0.272813515049305
0.111585510821078 1.509905043085303 -0.153936055447746
-1.001753339338491 -2.771728360917910 0.452099562187873
-1.107224497218596 -4.079212245213595 -2.112294423949298
0.088336992138805 1.530861077575365 -2.136285686225432
0.924765087610285 -0.937134976268060 0.296420978557324
-0.070904402620046 0.696280330467445 -1.079654964754318
0.998567395998635 -2.056290412334437 -0.466037998759204
2.343166171891573 1.000494530220717 -0.547492302657691
1.458364811982227 3.066747700577092 0.055021632072537
0.686236179154495 -1.553433236728524 -1.121342263521290
3.331962454434262 -0.190870518034108 1.754896528848915
0.020060588876985 0.449393099125262 -1.177772805447553
0.345849755108726 -1.393482058778984 -0.054451922003157
-0.531939237203439 1.537526947422152 -2.343697451206897
2.195054450169812 -0.556999897318902 -0.533701305861155
0.084197819037039 0.296170419346128 -0.876142487329574
-0.400624331259460 -1.530970486782794 -0.105248348855734
0.306388740334703 1.199814124379697 -0.062419090891009
-1.628952636449005 -0.391330409653937 -0.180655263389251
0.059120712578859 0.067681256022348 1.498691882344227
1.422799040946580 -1.164373349190669 2.371863702713900
0.397588027300170 0.515309107988951 -2.495645605574900
1.751726683270076 0.673944222260876 0.221663946511461
0.554071582261122 0.970907647501283 0.992594400233980
-1.210348788880240 0.734227061431246 -2.621641868777583
0.671753797771668 -1.471908619643791 -1.640359996246079
1.771249978401840 0.705074240539474 0.092842229312115
-1.001392534413315 1.511059157709324 1.397950911610468
0.913048823436173 0.315550806726646 -0.643632777668434
2.302821192647142 -0.748590700353404 -1.261997392672970
-0.344997851179183 -1.652282165298056 0.746248708776013
-3.142797940513923 0.822267278500184 0.051741540188043
-0.091699385283776 0.259254783688423 -1.546988366097228
1.233883673259032 -1.322187227295393 1.300395537791349
2.014826639491057 0.511354078664900 -1.188290627998992
-1.468898009350049 -1.137712760069991 -0.699468799488142
-1.575429226652804 -2.392361511925468 2.060706029633890
-1.171492952273524 -0.919336596959008 1.336451495780199
-0.809018156941806 1.053329083109134 -0.673981350920868
-0.328778905732555 0.742024641749515 -0.219787688758205
-1.948626575104610 0.405599482435891 -1.901445184993882
-1.490787546111803 -2.357535348625361 1.593179201202400
2.318503734434242 1.210732406396500 1.946713468904460
-1.004596403567307 -0.603120582505481 2.313998163554368
3.079062553492062 0.817249488818865 1.085669906417364
-0.606755202822131 -0.901811120332797 0.830608728440647
2.188381427079480 -0.602689300599232 -0.584197399739801
2.356800394908062 0.920252909763335 -2.553322143985470
-1.566345871653601 3.566300099118984 -1.466243773429246
1.131665993928193 1.416218256456584 -0.001510658153790
1.273111000570199 0.477229719793633 0.080644845166952
-0.514804120374152 0.262340830091836 0.459077818535259
-0.323185921509672 0.091910762476780 -0.356836893131044
2.102762884473413 0.075250208073834 0.198533437731811
-0.098544451089262 -0.743169751384947 0.428275487176782
-2.255740531055466 -2.815060544577980 2.767338163646613
-1.353178268741006 2.329146442855908 -1.332147904888791
-0.150171454705378 1.319873780054992 -3.524859958532572
-0.716336602206225 -1.379370425033155 -1.648651886649950
-0.697708506791379 -0.986072104920845 1.342854654628474
0.562945227316681 0.817315949036006 1.958363306906172
-2.255211610948540 -0.331286505172932 -0.963536852106133
-0.870301613006685 0.274556388515039 1.036440386363787
0.941451741077201 -0.725605857631842 1.058408873872110
0.004402250680351 1.822233105463017 1.027509071832942
0.135914308143780 3.422567734264111 -1.357054445357354
2.250953181486445 3.468662776682099 0.337732709129755
0.086587482371610 -0.847213819949396 0.324585906827487
3.208186700655410 1.549338302753668 0.652272631397063
1.437978661041772 -0.419279602847136 2.295352917644128
0.947730828414486 0.368235596532109 0.556625954834208
-1.250838267157072 1.149606885809835 0.188529186939146
-1.941472823113190 0.028916478670305 1.313752800650858
2.456147794372691 -1.205021708785695 -0.166622992034890
0.050344525522816 0.867600344698246 -3.308458907205204
-1.866003648899745 0.687874212292028 -0.323477584085791
-0.735440541446195 -0.020486798756346 0.233265155913777
2.230984529243313 -0.695768665763623 0.599276939572303
-0.253617818723879 1.037395393567586 0.541441987136651
1.696411377004540 1.547696905192572 -0.929037181152612
-0.924600926756921 1.470704696400266 -1.169565843736457
0.877374464936716 1.014571873647068 0.929524077987092
-0.096662548676093 0.225207696058112 -1.871831911698245
-1.403758907875777 4.751293927604981 -1.973016215744096
0.998379564226327 0.582909343707201 0.540339441127164
0.416829441161858 0.467523303582572 0.256902120853657
1.812836776603404 -0.006423150207100 -0.728703564687954
-1.293383304467079 0.030319327378766 -0.451132584620949
0.855523423582268 1.350988546561286 -0.221191017249773
1.243694815081443 -2.000313070829129 0.736547475988362
-1.037496727578794 -3.194977189245493 1.321354802354167
-1.257990420035381 0.675900291459152 -2.064629525818418
-0.254986577387630 -0.568584584038603 -2.461465821788755
0.208807733912253 0.435496740345788 0.499820118332519
1.348447056607676 -0.753826728062186 -0.537265507805403
-0.685715678858072 1.448327225392124 -0.239068404976086
0.171907004803157 -1.187000862516930 -0.035397848046344
-1.177741816967109 0.191381890363494 1.243550691784585
0.973425603647887 -0.460923625384703 -3.412753594489258
2.144048441071072 -0.666981638208016 -0.207943710640242
0.661442535904542 0.732565655440616 1.689240142779065
3.439116366420645 -0.669656713364474 0.751687720899018
-0.705097621867768 -2.714415570654034 2.735966790128638
2.406418205445752 -1.194762204248894 1.994719771216773
-2.413564179173218 1.351294628469017 -2.210288506758348
-0.798218886532965 -1.625608586625200 -0.983059381734114
-1.052794690274860 -0.634535653569155 -0.111265170382809
-1.457224011703098 1.342614322652099 -0.247007832151445
-1.498999955525548 -1.295061810897627 -1.004765863250776
-3.320281614948720 -0.928422829324798 -2.930020629541558
0.970671968227363 1.869205139012132 -1.480212746232071
1.401954218657200 0.479762770218376 1.427374623284073
2.067282972716976 -1.269553053496745 0.795413086838881
0.406889437006039 -2.673368771059948 -1.283646811277115
1.334499174963339 -0.983015779210554 -0.777006725479249
1.437204107619202 1.920117941136090 1.481082023689106
0.767823356285141 0.913510346371730 1.613691427309372
-2.249251361554431 -0.017770763609012 2.136554450397955
1.505357590997015 -1.551129872701007 -0.186373282847993
1.327069855103625 -2.048784269544207 -1.773471809195737
-1.042399179907078 -0.261301596719133 1.894790414756537
1.155541226675481 0.158914035047137 -0.560877040578966
1.974422080582935 -2.119354347566873 -1.262985551963830
-1.855924674366926 1.727951503505084 -0.420718731610520
-0.585928473754679 1.393487745661785 -0.647015071393169
-0.927549494730706 2.604324722207585 -0.815390083582297
0.550668009819631 0.409092297446393 2.811347225990524
0.572300887008850 -0.593926353746344 -1.901695712445306
-0.715007712622174 -1.508952875964395 -1.581822571103401
1.005515811492464 -0.094561117165661 -0.496304155816746
-1.274142751413698 2.463849615488706 -3.353493829589250
