ply
format ascii 1.0
element vertex 550
property double x
property double y
property double z
end_header
0.151936619270046 0.844011139126626 1.220323957254419
0.025433797997927 0.859915639861230 1.301051625538002
0.437045928546970 1.047838465967357 1.331167155862354
0.055224395385744 0.856721188332656 0.905995038176537
0.319684169219996 1.088053259872923 1.416853442646905
-0.077107407302159 1.114277679020685 1.043619413058124
-0.058805894021322 0.990643614717102 1.350332564474992
0.348249130080038 0.998442831978131 0.860576004977821
0.509209127849677 0.830733319583683 1.542991040452120
0.437709051494443 0.740750189446534 1.092164847583235
-0.231836219499710 1.043687855842143 1.059793973476810
0.243598278908815 0.977395381780358 0.940553286686049
0.328772881137713 0.919104755165942 1.509558208631432
0.480407892978273 0.969472140236886 0.857244258422602
-0.230425736502427 0.904127139149735 0.867918890395786
0.498259564612967 0.701894425238237 1.259611677785389
-0.070287515122963 0.871450794855149 1.472733661409308
0.440960507593632 1.048831045404162 0.712796585447401
0.008619937125259 0.910863361027248 0.670464349791744
0.484882646608431 0.906398754370986 1.693766704577458
-0.017750066071168 0.949782426578208 1.736218719659082
0.706004761469836 0.801623342191971 0.948101952892381
-0.234234162484145 1.089882382244899 0.697034966946141
0.519554372768028 0.799449276480343 1.665424653958917
-0.179650306266669 0.935090872475461 1.537327253222338
0.702473314578246 0.815414888248920 1.317066746953828
-0.379339049379213 1.059814150579014 1.321941532823358
0.160864092907984 0.878134962415683 1.937165078475142
0.227266049482282 0.936699698592880 0.484348478554531
0.844158609686374 0.559137870777049 1.044511194403294
0.614475607978409 0.776160511001697 1.374174019323295
-0.455867512274471 0.818949400633570 0.961169338749653
-0.515437887305461 0.815065015457436 1.496641497228530
-0.010051179929223 1.124420998036331 1.702587324060634
0.474060883044600 0.785874030940820 1.727454241281011
0.455983263879821 0.859055857716099 0.572688023073123
-0.063971594687403 0.892435794117316 0.734891753246309
0.683485816674684 0.827234379507521 0.883687722811585
0.833697671338488 0.725198596365721 1.683639198075487
-0.522694726304067 0.993798777764248 0.737469544939582
-0.531950467524008 0.777331129715701 1.533926594229329
-0.189031052678576 1.055463132640774 1.696104750085914
0.701629587978391 0.729403758378746 1.769622573535580
0.577135845340855 0.722109782797019 0.727978932307977
-0.290437608819771 0.980039041004217 0.504555784341058
0.795655404036045 0.618150218082738 1.068859789597398
0.974101526788240 0.504020997884002 1.052893083101118
0.932057435198276 0.471037064348272 1.507661993020665
-0.504806560432296 0.678193177644542 1.347900260775015
0.129825372955423 1.073319964702584 2.052854330668226
0.291355214383526 0.913666352656780 0.275478977617479
-0.707919532184692 0.735764762956856 0.948005180485127
-0.584857720261724 0.854014083412595 1.269791071639012
0.100844127123535 0.965523692423978 2.076426942802186
0.253764122883282 0.785439193096668 1.879814884962544
0.298589035570832 0.866886125708689 0.467710088272761
0.015627985228294 0.980597324126156 0.344017933030382
0.055266106479492 0.900859474711527 1.908568216123783
0.756206876250458 0.601558594072064 1.716944692523205
0.617998216256517 0.790366905164612 0.556934543116612
-0.342948467818967 0.785121278481928 1.663229183557609
-0.527966170150218 0.947242853546682 0.649674702093651
0.140870817686277 0.710120714899612 1.950058738397581
0.840769037504219 0.620520409990067 0.910698544264673
0.712539658056702 0.457786705222447 1.474749000797536
0.397271507986509 0.614384947144445 1.919702420465437
-0.545679925923771 0.908080741944612 0.687093405217630
-0.649322593694304 0.925347072681613 1.552267782707362
-0.267437611537881 1.093802937046200 2.111829704804237
0.674128749951847 0.829506086274785 1.981570969000989
0.578767251745750 0.917076415960861 0.332980150620801
-0.309159040865355 1.057372809321991 0.285097474686218
0.277144245142064 0.691233569729259 2.142396807746401
0.018611839817003 0.531046215923932 2.035350089128861
-0.208097034673837 0.664663012949715 1.975192913678035
0.979210765593345 0.507271928336978 1.061736561804794
-0.559270990651890 0.847004936842575 1.260829027546206
0.968602936273037 0.415837009206869 1.146181232360510
1.018337608893898 0.324889047451954 1.334915132775105
0.654816188087980 0.584540012754835 1.968924124605099
0.853447733186203 0.606974623430727 1.787589131587937
0.812281680684313 0.688295581406867 0.615691010765505
0.390449214648070 0.409585138233495 1.893477742411027
-0.760798127103322 0.739976360924389 1.065761102364775
-0.588917238356298 0.649169779289757 1.522714561725360
0.581331759621405 0.451667971663255 1.863725180526099
0.567410759162062 0.566069847294593 1.926199238323961
-0.429325199805020 0.828143410020534 1.896446639167970
-0.477562695105247 0.869305757496876 0.497115620940591
-0.223792262906578 0.628555337796672 1.983981382949113
0.632600232612926 0.570500258788656 0.537583045106103
0.653840671560476 0.636167875352353 1.991464834951739
-0.301514731672286 0.796131098362781 1.968169494120520
-0.514190065685720 1.002205580606835 0.327644163570630
0.461686565222341 0.317798636581169 1.925484519787986
0.221553657895116 0.832597481721970 0.063846859851720
0.127250612598218 0.462322793990955 1.973638990819239
1.011864251328555 0.478931535612046 0.905941735985447
0.995780477612262 0.498573556737632 1.548195493633482
0.161264928097432 0.274407128470419 1.991852479335184
0.478553871325811 0.810808906952444 0.287186184242977
0.114475833057179 0.876879701801656 0.072399438754722
-0.720912961825968 0.711291788329274 0.911310210063554
-0.771754498104755 0.780449854033021 1.740713875717446
-0.276508399055835 0.762058733213422 1.918341731266490
0.335006312984962 0.321558122547529 2.122543688024299
0.347037235867276 0.423527823144407 1.855428303417285
0.513781929134587 0.827769502396893 0.196843959616210
-0.177920024882391 1.117108405299240 0.332054699894285
-0.337866637378057 0.364601495263955 1.907341092286118
0.817128533672751 0.420675067654898 2.043790118750030
0.689162935109209 0.468815622416983 0.356166342782745
-0.712207266233991 0.487373489893987 1.319204680275143
1.093804119283861 0.260313265537957 1.096057307252982
-0.224145478818782 0.343603332524250 1.919738037493673
1.067831183227170 0.420882095219706 1.737842317120688
0.799547660996945 0.242840170641514 0.627771844345836
-0.695815961269495 0.964613184218166 2.055573943870941
-0.627725525897702 0.827047208742172 0.487687670696752
0.808347559253779 0.316610139425363 2.117156214078217
-0.701417649990956 0.782600213796286 1.814778159530432
-0.823569434889052 0.828556126358747 0.471291189612264
-0.757421318322692 0.649860499098481 1.071608810928018
-0.761783133117070 0.714301610741566 1.460244227312905
1.051559919071407 0.080099743406647 1.045832342684822
1.106333010988474 0.255300990976901 1.300394860578587
0.439392878811550 0.272874766350629 1.954791752732233
-0.041441079212210 0.167052075824902 2.097754727609703
0.734047347911014 0.600728465393062 0.074627928751982
-0.541870445980777 0.562907385792406 1.947124291723193
0.157911850687016 0.252397524485582 1.977768811418433
-0.518742439277917 0.638863747591795 1.860361731657804
-0.510949689470354 0.999730682767491 0.245259241293525
-0.384261512676503 0.418969369464407 1.953630668646436
-0.684157405781912 0.432191798768890 0.699828455775399
-0.967868994173548 0.620276834330272 1.605456065144111
1.072651591838108 0.344267212296383 0.882462667026692
1.049149356972233 0.062433306956854 1.739728083850819
0.594593832396502 0.338865029747828 1.907740598119816
-0.436719160728185 0.576900564127214 2.118424148414545
0.277420795799296 0.860360137116190 -0.029933942263327
-0.709831749115049 0.435368974875648 1.864894014381499
-0.120837728121282 0.037271996121068 1.866332737449851
-0.501389481938866 0.362454397675224 1.911260725634111
0.294309090073107 1.003092636150338 0.032011337779630
0.123283482349940 1.033088995763918 -0.021998230949990
0.881229169656529 0.522610230907865 2.142291467060613
0.830558396559560 0.536769742086870 0.534542387056574
-0.774725638935727 0.586173837429763 1.960550089182926
-0.656112510473826 0.671513948453770 0.478032508168285
-0.370212036260951 0.214458902068749 1.944136343574467
0.836010506864303 0.661628465975870 0.089438697949864
-0.777990237743711 0.642094194956222 1.807962184058856
0.885528575540185 0.064363453709413 1.777120226199790
-0.890409766943116 0.504609455922125 0.584882365003450
0.916910418804547 0.257786689661960 0.737203742957378
0.842298596579179 0.087194936491362 1.991987154388386
0.589608937528113 0.838387622930585 -0.127846913836314
-0.170711687984547 1.001900148882621 0.075906660081045
0.074709604088214 -0.044313642798016 1.873458896985369
1.114605735733923 -0.106339083073075 1.300695933303762
-0.976876659171941 0.373644029305757 1.255000055877389
-0.453747261538566 0.760697555581276 0.118916010964464
0.011745083246251 -0.036032212828254 1.880239787192894
0.510160723603462 -0.022632402007173 1.892154050826028
0.974817320285204 -0.019263622574696 0.910290525558079
0.870391736659836 0.143179370021510 1.473397541776249
-0.906506432574623 0.512514843422600 0.903937808507367
-0.950611244913512 0.305206326792939 1.492115238709565
-0.241662358372606 -0.047213572032127 2.073864785029968
0.661905644678428 0.027716898729808 1.938517344757845
0.978468468854048 -0.080077091528415 0.739146344163207
0.970176817330142 0.131777485335059 1.639162857499364
-0.799740348259049 0.486004283517231 0.726747063563435
-0.955339061683982 0.277020637048291 1.693220514843627
0.844738758529727 0.705379277294989 -0.144756777796415
-0.272665837093653 1.060742249564330 0.037837952932325
-0.715449715824159 0.394935130798617 1.961985259428527
-0.450974099160691 0.333167835190992 2.105060363929312
-0.725991023787845 0.590873969397129 1.910481674891853
0.892197834827777 0.143546007807877 2.064359201371571
-0.835575110661003 0.493775931068288 0.357275811452939
0.908929368026764 0.126200940997301 0.266286710477614
0.963332836603674 0.506074804960528 0.278845023042271
-0.591827496589584 0.841020783755237 0.138912707449329
0.037523072507201 -0.264736029577558 2.001738022835629
-0.284180557437456 -0.140106211096914 2.027676600003670
0.175166843965109 1.102809024488495 -0.235370893647646
0.652451671185437 -0.011395410230242 2.058434443690702
-1.059634198161648 0.261670464839361 1.735656877190896
1.078978155008661 -0.114309698875603 1.651415172265599
1.132995474966301 0.096305932989562 0.588384155306363
-0.771969331806513 0.341495443112623 0.537612887613756
0.290837456035584 0.827913206922995 -0.162329248631929
0.047517685866145 1.110688495527139 -0.102235128116736
-1.120933243437066 0.122294093353905 1.286408142507289
0.949490527612222 -0.318798011260006 1.155375464844850
0.907729507819326 0.610959426847731 -0.144559838558096
-0.245847848205621 -0.073978316980663 1.950287444811680
0.321266664706810 -0.122266458841553 1.971526214091086
-0.889921710057987 0.125481895855422 0.930723151063192
0.872026200083701 -0.176763403973264 1.027434133627351
-1.044598561358467 0.161666264302492 1.369396090271209
1.053440540043886 -0.219346139189660 1.518585775247727
-0.564557373625413 0.947746358317655 -0.148506351803613
-0.076887028732754 -0.122438361599806 1.973118465600358
0.440157850683429 0.762093050641603 -0.254055213679257
-0.342978553953422 0.958438215769176 -0.230366442171390
0.654571352665628 -0.241547151985796 1.968398069706127
-1.105571978377657 0.288327297900517 0.793430704219854
0.843106188380823 -0.137724328497281 0.928348321978413
-0.990154377456009 0.247452975849357 1.715726581410978
0.882652074856368 -0.108718289102714 1.616438178216569
-0.689072810483351 0.339506824280312 1.886960062465173
-0.948663515417380 0.588398814291558 0.314248853959691
0.960720639048389 0.225662309555179 0.324906432140255
-1.017498877167384 0.516885587355720 2.012889465101620
1.024464604311065 0.065834506250712 2.115037435315126
-0.483273522451852 -0.109279246534658 1.923750012295073
0.242577484604767 -0.329729747389619 2.106544902291585
1.061270299157892 0.049705407532572 0.407252497474970
-0.817132640779543 0.282070494447823 0.379736009271820
0.597278904930489 0.589317645683598 -0.228966698554470
-0.428286261871098 0.876653283675039 -0.129405978919132
0.863130348093718 0.333817103281008 -0.136274964048386
-0.443797176812005 -0.097370515090705 2.143915121353381
-0.741460133110107 0.776980926983181 0.114569858033697
0.629175032268147 -0.129575208389489 2.055357369333608
-0.960734595891937 0.233850046158887 1.914641810197830
1.067905636205078 -0.122837733635698 1.667351403406343
-0.831463606308830 0.113029209482485 0.680177936370190
1.125312608759210 -0.302458386432662 0.496310395704719
-1.056453040147351 -0.105514852754330 1.291313341906395
0.926272772278341 -0.432603587882980 1.131289375753147
0.219831546309419 -0.322465598851696 1.904706046571643
-0.903861460795758 -0.065037969099170 0.949762506646556
0.803078395650014 -0.464260131086310 0.888540971314681
-0.927826382917444 0.007358595945224 1.278377994819388
0.943016438913425 -0.345256323701146 1.532381560923902
-0.409610374684632 -0.266658097231405 2.130420835204116
0.680669973001646 0.644578100189959 -0.065653595063798
0.564387081014627 -0.262341218325982 1.853828702598473
-1.030345873848231 0.049271065941639 0.688740616535678
1.057074008553211 -0.302476474936165 0.773736651972194
-1.036707662095054 -0.055410244477320 1.528200023572787
0.951494028145122 -0.510343396694050 1.682044464355275
0.236799277123664 1.085726974682789 -0.280922419449971
-0.145027364311249 -0.373776854464922 1.978850697298957
-0.576673783029309 0.800550965944199 -0.261244258774822
0.092109681786485 -0.547474963701989 2.106141206387116
-0.824172082442717 -0.089199688169448 2.010302659422418
0.292565319368527 0.959511999903827 -0.457220486363421
0.118800670769306 0.960367194469478 -0.294100377580442
1.016597836169375 0.054802759470113 0.134597928319164
-0.945965973946223 0.407371369610812 0.300271221419949
-0.695231222085292 -0.056466779673465 1.907740369038291
-0.837304233981088 0.340197727159363 2.073403977379534
0.961519846164622 -0.080234333617015 2.068059289548424
-1.080263310107021 0.301846539319282 0.297912562905502
0.856399051173564 -0.146568839229786 0.447986319266476
0.999320464145495 0.267899824431568 0.075729508548346
-0.953102353020824 0.606932656986431 -0.108840502266829
0.490746142357926 -0.488371049146242 2.095760629872248
0.635682734894888 0.868439490365515 -0.274584789349801
-0.127559845766487 1.035448138851104 -0.420782878955810
0.781372368214119 -0.419452698244975 1.906356355375181
-1.022071933507718 0.066340682226324 1.942661929681469
0.842517462739193 -0.296494269513951 1.840428862273396
-1.134577109980985 0.107530352890224 0.640710943389223
0.859910090175888 -0.304256158526490 0.650780033085738
0.367387381178622 -0.326718657253207 2.065235210549381
-1.092180013025135 -0.083499659692975 1.198199053554930
0.975195360272433 -0.570766374875741 1.162713617266815
-0.985145163676110 -0.312626917496633 1.056552496053970
-0.905791642118981 -0.231838929071363 1.468670785262472
0.931264397674987 -0.445709551731191 0.926688020804869
0.841222269451005 -0.516423691869678 1.458359333327989
1.059195421559229 0.364131589984718 -0.121378773050325
-0.830092503669288 0.731892546817248 -0.321400460316904
0.767362416060116 0.810243944085423 -0.307092107531116
-0.420370978321676 0.876452432754891 -0.343999178014143
-0.553484258354654 -0.473808699886800 1.931998806752809
-1.038864105077794 -0.090181048984438 0.709628093784769
-1.121266751641087 -0.314060576607557 1.517987486487240
0.953359476148554 -0.601286720292915 0.907970290986650
0.685012612088595 -0.630839610474364 1.563027911090382
-0.819415955579512 -0.312558369370454 2.047743867990022
-0.941227381570588 0.216870531942835 0.252543544762220
0.916784252409930 -0.306729456040556 0.143733400362898
-0.544050223299656 -0.469350787924237 1.999201128092712
-1.047887111549409 0.135412076628315 1.851880652457565
0.992186499628176 -0.242083495344746 2.046383874656662
0.330367343418339 -0.535610104340230 2.080845719939188
-0.954016805163897 -0.064628793706577 0.439069404701978
0.977190539737110 -0.482354152186430 0.351877654816259
1.142716519521096 -0.110033220517880 0.090808164540065
-0.828838253505941 0.501752386521642 0.036317995020958
-0.240140189273862 -0.553542012496725 1.978294303129417
0.806325146550787 -0.784243828779771 1.298971377647063
0.518013031410243 -0.580231400168006 1.981610290264287
0.717237137960413 0.507243889494031 -0.318277926455751
-1.060700451558202 -0.433783779081593 1.267490511752980
-1.007513674593203 -0.100961943352843 1.655536625138710
0.904751640515053 -0.487111178070624 1.747758225787827
-1.024598795760680 -0.175945087955542 0.640012581256849
0.679864246543264 -0.462564580290489 0.455454560773914
0.608471062196283 -0.825779483212877 0.994730317994728
0.666571968914991 -0.746906058425267 1.395705481263060
0.541946595969892 -0.617872341876541 1.976257179724055
-0.505486577619126 0.718493263738880 -0.277739751530081
-0.827677513964592 -0.458147394377625 1.121503593218953
-0.895827429241687 -0.479824806256939 1.450483573216786
0.101441715891588 -0.679794178136408 2.045916428040250
-0.944298566170380 0.616806860720538 -0.251810856202068
1.088509668219003 0.214933723078075 -0.094056997111983
-0.077120914572188 -0.663985405617557 1.978459854052116
0.630527025452882 -0.642477073346967 2.149099417505361
0.083178293570312 0.996347081790521 -0.608538398408745
0.800750885861756 -0.674234241772011 0.742896083801611
0.705078941182992 -0.739569464404960 1.499409123550080
0.443738082023212 1.033218119537714 -0.451284508076588
-0.044397200259608 1.018198341244846 -0.734867133526489
-0.937228108481503 -0.244702768019188 0.714255287592019
-0.940117265294611 -0.373640420156900 1.517245481459719
-0.818854781426131 -0.332884636290562 2.059244104142366
0.560142597343587 -0.872242025676576 1.337307180496693
-0.921762362838804 0.069003750194244 0.240001134597046
0.905449120744986 -0.395026472751540 0.074910189262755
0.563825938542919 0.739833481410965 -0.581513981465248
-0.277212477556757 0.946262586334307 -0.510777200837705
-1.125760805023542 -0.235130664222734 1.880450153256723
0.954807736689175 -0.492457271716779 1.859162090198292
-0.952823503646995 -0.108727269609981 0.285777321912224
0.719656169651369 -0.634276304463715 0.477950036821960
0.996166307623567 0.447268705073498 -0.385146415030358
0.579735155032498 -0.905969312370921 1.017691804931358
0.426660218723418 -0.814930237122452 1.319205499785756
-0.911424546663903 -0.449410418563477 1.336542387651731
-1.023082547023289 0.076572006775410 0.073176300259900
0.841803856673139 -0.239803428788294 -0.090691064974848
-0.855953057054606 0.760832362691632 -0.526293897767830
0.658477888649069 -0.777295913505236 1.887850830097327
0.624327553439852 -0.637952868396109 0.626265633492812
-0.732330703962016 -0.606372048346291 0.892009181215427
-0.769157680994946 -0.574924777639542 1.409320343291845
-0.903629341751175 -0.351779866032250 1.918624206924070
-1.043296617103764 -0.317634604898268 0.716346543433423
0.236926264653032 -0.616066195840225 1.930670640625101
0.709548173693586 -0.739727405403054 0.853342058712734
0.687511179971187 -0.891527849718148 1.680083261432824
0.874035468502402 -0.053458551228904 -0.189195491159898
-0.790422042837700 0.384230689338765 -0.292690008437934
0.749091891863191 0.714898628888944 -0.603405952116329
-0.637376626400063 -0.643670067269699 1.851703767855424
-0.331611771703784 0.899340423236850 -0.464947820779953
-0.720373849181984 -0.683913971994853 0.825714403342142
-0.724910339625886 -0.577518139263857 1.741119388961534
-0.456768809807650 -0.436432118048034 1.933324246896079
-0.413570400397521 -0.602748923294296 1.894985545008148
0.365116160112389 -0.794821176310126 1.174832816834700
-0.689783248001507 -0.814633852213150 1.282623785071544
0.522771458006814 -0.833235094279680 0.993086833483850
0.409863599875257 -0.805829377930222 1.435685065727434
-0.626187362907566 -0.822464944224673 0.906105953040321
-0.767849951798724 -0.613256047492699 1.370844199967582
0.201808606803538 -0.638723015003234 1.850175432732035
0.557919383220305 -0.796432924615688 2.004008649316921
0.811464125057450 -0.856347706289514 0.509190859522776
-1.016248896524691 -0.518712007023596 2.092541346324191
0.504207847829425 -0.902018919259606 1.773674338901183
0.589093188387970 -0.700331357460870 0.693876373898259
-0.909245446691810 -0.513271683370687 0.493911119286600
-0.884601084083504 -0.193576846295454 0.121887355598813
0.858414347907343 -0.634227179012945 0.118926819401364
-0.893588505258440 0.631671676509588 -0.483066669539753
0.946822415509340 0.192962392040422 -0.419155673279376
-0.966506834555403 -0.428584569479181 1.924905812476243
-0.866005646142545 -0.590247602691818 0.604360076955507
0.826391464986221 0.613740594547357 -0.673545453564872
-0.389503351886723 -0.695125353184830 2.043298322335735
0.409563068376837 -0.915972951331919 0.807931271897493
0.344028127968347 -0.804993755815836 1.675284847357655
-0.635904338409362 -0.727709101498701 0.907448406825840
-0.844268549364256 -0.699601072709883 1.586747968049004
-0.896757091757688 0.115945026574168 0.121466465391314
0.911030978434751 -0.316388575283151 -0.093309935511563
0.093378270892405 -0.911125182245170 1.298774720783985
-0.421055689413876 -0.895397812170608 1.173733910367439
-0.417821380291704 0.720730603018110 -0.507828042502508
0.047932934502010 -0.890164024781651 2.049562656900803
-0.111465108792935 -0.747061053910212 2.063589000145902
0.303907038137749 -1.047126250618666 1.038657722668402
0.204402472804584 -0.858049139464428 1.263253412317124
-0.433906039183748 -0.884988469460333 0.990503151441549
-0.680651453617934 -0.820997816292696 1.544103257043375
-0.913351881217370 0.064709901550837 -0.123386636799518
1.009372343204525 -0.125935292897996 -0.297577572246321
-0.253226887084738 -1.038496725330305 1.105704806909776
0.107757029243295 -1.050887280980367 1.117297157290740
-0.223452360633288 -0.844714612293258 1.114091258815826
0.178252076871895 0.839698725651565 -0.653860642858810
-0.389399019369766 -0.944165134321529 0.919943569598655
-0.130729414559166 -0.869992891899498 1.078078084456499
-0.336332660161977 -0.829675952966004 1.307455523280589
0.055616697414047 -1.076838843435972 1.370738136565949
0.085609522881822 -0.955205116806833 0.702752516843932
0.161566096827410 -0.969609295850275 1.597514938030335
-0.432184659227879 -0.879864438167522 0.671469895262759
-0.445725402472759 -0.786557226485319 1.745453702088870
0.607442935433882 -0.691141516480018 2.114908163700798
0.431530155524421 -0.932471299890936 1.736124137587681
0.509074207862462 -1.021088177835488 0.535448124598638
-0.683187384098124 -0.558991265093580 1.656291716257930
-0.851601925650313 -0.812139653513050 0.572474214777144
0.418623436894475 -0.974858585866796 0.344474752392389
-0.078438506656546 0.957758619627364 -0.723590828870555
0.511721355717114 0.846848951532954 -0.793239537348454
-0.237462967741525 -0.861602426098687 1.110860532440030
-0.224305649535877 -0.926872881034699 1.448557168098316
-0.750476163211649 -0.592896890201125 2.010264046817001
-0.862567745795362 -0.501574376859105 0.356855559005370
0.775038056145423 -0.777442399262982 0.119141032459279
1.068467018037245 0.465565277829063 -0.513551741710802
-0.478817851859326 -0.850494969944060 0.838528898595347
0.135997050132502 -0.987184435512297 0.711391534855904
-0.310938903570470 -0.844699138511173 1.467034009752072
-0.052782871438253 -0.981324857879811 1.533827287646253
-0.890014253373441 -0.501602224340175 0.152131830795128
-0.688461170823161 0.655176785086813 -0.595806115213033
0.571910551524317 0.884385380570505 -0.895097740134760
-0.304066398398409 1.044721633329872 -0.773629684671135
-0.306002928197870 -0.962954741637078 0.736049032523911
-0.142231133691614 -0.935449309555642 1.485031522416417
0.953570737300908 -0.025095427360782 -0.281836487656873
-0.981702521750718 0.402788656158278 -0.429650984385045
-0.495151915650391 -0.751830209497560 1.661004664229093
0.235214508943164 -0.833118389855869 1.944117035496562
0.170149651303582 -1.118081038413736 0.546111031892637
-0.509195808065213 -0.784315154832935 0.638904425855303
-1.098593273206347 -0.285650407625659 0.077717739659754
0.830039048191140 -0.624083625870719 0.057080627546058
0.488710066187095 -0.978285097021776 2.080347877603415
-0.837006498206107 -0.658543144658514 2.077299898189006
0.266970126561402 -0.952893064070963 0.440055430870054
-0.566980874578317 -0.576929816336491 0.256784737354904
-0.442868280019485 -0.936339672412696 1.906223383101140
0.102248682283112 -0.966176850050182 1.691352418001260
-0.468119520123863 -0.818567509923589 0.671236195295007
0.146536639854106 -0.955936889877040 0.494876986488705
0.793891581927300 0.679657338030549 -0.825153741861646
-0.468631351772206 0.903771798641110 -0.845343936912351
-0.944308006243665 -0.104987575584829 -0.229496202028892
0.772914915652797 -0.313775838273639 -0.214361677328565
-0.225849019247249 -1.029743258750337 1.769649817458682
-0.230487860264232 -0.837297670681442 0.588021111492324
0.483839959323674 -0.876534212209819 0.239138874098321
-0.786208865942596 -0.667538151716420 0.053045955803483
-0.634419254897982 -0.817673739380039 2.069317973660930
0.143199800065983 -1.001591841660020 1.918153809090686
-0.753107266346766 0.514981750500286 -0.546758313211124
0.902758062944420 0.257589416626456 -0.679390584454350
0.231377570393875 -0.981164924750556 0.337786904593369
-0.641570087012474 -0.940966771382458 0.387395513984513
0.614138495214968 -0.841854485165071 -0.116364906999034
-0.865646181871724 0.344035334376087 -0.280268201917802
1.010141898274771 -0.082328858645314 -0.278395571639019
0.904138085339797 0.634971162574550 -0.791972758083632
-0.859134316343020 -0.447742052202680 0.044855055873798
-0.433688359001766 -0.872255593063142 1.903510164472280
0.027361072128036 -1.012241713811619 1.937895519015217
-0.335338629813587 -1.021574648956793 0.461441624956625
0.121266893111294 -1.006534061702986 0.251927556439118
-0.614022075500932 0.780662310736832 -0.756381593179975
-0.083355053429450 -1.043611219923688 2.048800528763937
-0.186865958658275 -1.117243979884976 0.341445745266109
0.337450013817767 -0.783791431441856 0.213146810405669
-0.812954701572453 -0.752477706296684 0.154733053793426
-0.930969774943987 -0.239449693258752 -0.051048190039116
0.787282274780379 -0.606644582833843 -0.143428688620268
0.530791433000153 -0.920816372828618 0.124266740595654
0.307800148706024 1.111419485231135 -0.963539206841326
0.125990592829461 -1.123466011923143 0.162533463795152
-0.497912754520701 -0.755065010980175 0.104484869862232
0.879582942167038 -0.099596650046252 -0.596820347407315
-0.917394376270641 0.422439002759480 -0.621096227641130
1.015348849921213 0.538561835589587 -0.807919994662404
-0.885611464366956 -0.705009157203892 0.072732495050808
0.249731981877876 0.819179789348500 -1.145060823993144
-0.056345314059535 1.052722407138505 -1.057186707329750
-0.666957795252933 0.629964700631942 -0.808553489316464
-0.962545851269342 0.061144887770890 -0.276546265557487
0.881744525176457 -0.496733467690411 -0.456359915802172
-0.252757661447856 -0.780350871147252 0.066178778085842
0.118881186011623 -1.081444233214163 0.245566852679774
0.627040883846768 0.797779152326414 -1.087348104956428
-0.092663597663740 1.066577340943805 -1.081830206953897
-0.267034452902409 -0.856103709939674 0.067681857726426
0.796638481632040 -0.606469116920224 -0.245835221432313
-1.027792236432307 -0.516318229824513 -0.110070438640630
0.537269484629754 -1.002159745861525 0.063096800743496
0.788005742352704 2.627834739804724 -0.676090398605753
-0.709349003271509 0.823736040453840 1.049905975937214
0.397404879942946 -0.182178038773139 -0.101884005425939
-2.444810318408862 0.322056087696120 -2.116505930438537
0.287947385521220 -0.209209173579195 0.186237030475799
-2.642158755156750 1.162744741689464 0.598191743494884
-1.140782092396797 1.103454455160324 0.626681901813111
2.504109643467288 1.233609382122632 0.748096616921984
1.322771719302219 -1.205177073465153 -0.292789754711836
-1.731102855512883 0.760961383130256 -1.935573907957400
-1.748227336373183 0.541669622147493 0.333703148946361
-0.509018119606107 0.533118859828971 -1.256399280573619
3.311907176233200 -0.183370494414358 1.280102733071957
1.582362984247957 0.988862967637571 -0.461212780755781
-0.199473329284985 0.814610226721543 -1.403959511190660
-0.172652091226124 -0.858903396289233 -0.796235880501642
-3.372921838264048 -0.809811228258285 1.408427440984368
1.326694385798452 -0.379157241316979 -0.444099927380174
0.486516734251853 0.141693479653966 0.116825933139423
1.535293426116568 -1.140906701273781 -0.378861734130509
-1.187580305185279 2.426841551121198 -0.076871140469313
-0.299896567088916 0.926506452060493 -0.211789916735533
-0.109498535239331 2.591672122399548 -0.612975929196912
-1.889981340422803 -0.753715691540231 1.971161390246328
2.902212914645447 -1.607512390329788 0.763694518712818
-0.425481145465727 -0.066186409940000 0.856409236116153
-1.548716566094472 0.882609124491713 1.847288195493149
-2.540583901899572 -2.436317447175321 1.231662093206169
1.730498924898073 0.450812019385814 -0.468487549543301
1.667433077687157 0.144029314587242 1.340762804226484
-2.700655671844896 0.723614384535291 -0.741866799362243
0.237125251786756 1.286712856710511 1.198179603409322
-0.963904223099070 0.174554188837815 -0.003489325092786
-0.722402785037280 -1.552248123215028 0.030070487780437
2.374848938032937 -0.204164340069697 -1.064404033993283
0.382474656582907 1.875088652407684 0.660814339439634
-0.907032127568814 -2.078625893524243 -2.254123904709092
-1.380591774328957 -0.287564520328326 0.574824788150257
1.114382367673406 0.405969882451170 1.001741859753224
0.160583030324874 -5.279760718957208 0.770341374647382
1.659130123325705 1.370885173991674 -0.240433560257002
1.870632206243487 1.407289326856573 -0.056085541369796
1.614076017689367 -0.070625615211119 -0.338596737727421
-3.293526892493686 -0.403334728850035 -0.916462971830688
0.401489134969734 2.020176201500142 0.957746263791928
0.584396188037908 0.138227354336738 1.256813482562246
1.692547229208172 -1.978295081459019 1.300866438498784
3.073671693427620 1.156309304315136 -0.441178498664681
1.011636019240916 -0.745777493124939 0.358593268644905
-1.387073182486431 1.962629707166880 -0.120682285046501
