ply
format ascii 1.0
element vertex 475
property double x
property double y
property double z
end_header
2.119786165364149 0.758021107785602 1.148664847797283
2.035753445353699 0.945125065412432 1.136629156971349
2.094256341440941 0.583858245470666 1.174575558753521
2.211484898095658 0.735949491722499 1.060957871062132
1.871233151941435 0.662925367656984 1.254560418993199
2.220391588225121 0.890651269551790 1.014301765165182
2.274391602330915 0.570660807517170 1.063747918596973
1.811462683078403 0.889725974627844 1.264351350924413
1.920046177330755 0.521679942068355 1.272786067676207
2.117266911441275 0.440428116580646 1.278376182653719
1.986284435288435 1.062076734898942 1.036593414911585
2.222868219539528 0.742950619890857 0.767769016431720
2.292769380528921 0.492180598226011 1.139808417070772
2.123279351655826 1.128421504236103 0.956728174952213
1.793380617501297 1.066207862921768 1.157851467198803
2.214268252750158 0.878388720794641 0.814600398283950
2.237274650117308 0.525699161832782 0.914300715993692
1.984048119844622 0.397432964053317 1.366910030373564
1.723565318181914 0.641139564216185 1.363245637962583
1.584317010750708 0.816319931603010 1.307353131324655
1.772192709011511 0.468657475121962 1.432553405801606
2.371344227573330 0.362960266011252 0.902858823002950
2.141416797284658 1.040522868512521 0.707644840973027
2.109981968487864 0.183587336546858 1.245085722489082
1.868156880713026 1.265649600849565 1.047867182753179
2.237386970537437 0.282213668785671 1.159017096001026
1.611665456530083 0.990245059202786 1.269227229527487
2.202526895575049 0.632305211119010 0.556010129360782
2.096665512628731 1.223772027546848 0.870857973891508
1.735617959748967 0.331785637974357 1.469142947487830
1.749794209485255 1.168644668615742 1.162121292513205
2.158071497036264 0.773044749273543 0.608234677036417
2.292374474406316 0.538906089417759 0.614148929292241
1.974515555428413 0.166181396891770 1.348313004902564
1.527914637777370 0.591481663144414 1.379125654873819
1.394986049915377 0.770762838373817 1.375121209021806
2.277501071593154 0.171736815814131 0.931548917165999
1.588714674278227 0.468385942154785 1.377213449877027
2.066941545381431 1.241351429069643 0.673069778050952
2.051333934928471 0.940474296115971 0.573951198616454
2.303180954223304 0.354440355019670 0.663637830868617
1.471112141640031 1.193297156435489 1.179359615508600
1.834120235575857 1.454528101818413 1.019284867825217
1.363785091798200 0.959462623892755 1.269999212790544
2.190182986962370 0.016376640587580 1.045209408737219
2.110330794433093 0.049127888109885 1.217689187884136
1.989004916875976 1.450778795685598 0.815427072452420
1.612130467205866 1.390925673877082 1.116842471821058
1.755439191818313 0.147692233538067 1.452140675135074
2.132851616363925 0.538869559733003 0.368777283342811
1.561728749480249 0.228668176395508 1.417025040785115
2.042798930054560 0.703597161345100 0.330297064547594
2.168452957395300 0.344121490974574 0.459957827505975
1.986045343860018 1.155404585439110 0.500035530337172
1.964355963341921 1.333470530032785 0.596097078408484
2.233961612356158 0.100149819577645 0.652555733936208
1.850099295643105 0.002229887849649 1.350527202701610
2.215785167072310 0.004582987064605 0.916407823710278
1.404521373853984 1.304258836125677 1.203058732347443
2.025669855207521 0.892954423673712 0.364400847505293
1.278957687664466 1.134882721160855 1.216294546685368
1.304089038111099 0.558288105096819 1.403042525915053
1.218458306988014 0.737765854357392 1.369278755456796
2.194484217850219 0.236073144189908 0.518645701833846
1.329620097957617 0.342112684030968 1.474697407969346
1.818438187284239 1.537001273638635 0.943994851854889
1.962576316274754 1.560449626109659 0.792413608086576
1.568028789348196 1.464329555437059 0.986558395748426
1.135517291646065 0.861254578709996 1.373322009747595
1.983649446877532 1.336619563902254 0.367248035911297
1.513216510174237 0.124951537009863 1.403502806839436
2.036614726467303 -0.150165193129104 1.098733534718551
1.961932017537030 1.066091546819975 0.331197848329861
2.065662708253615 0.497467130650607 0.288331495619035
1.294971941465537 1.305724892188039 1.252185122776650
1.710877836003876 -0.100551230316755 1.351887718964738
1.394941937610652 0.164592717482723 1.423582779018524
2.021634195864694 0.622743878134567 0.199418414129824
1.949392364667892 1.551977399569125 0.590183140894987
1.908065047776176 -0.190229476456104 1.167593966283752
1.140827849642402 0.464837681630975 1.396940938422677
2.129159262717396 0.328894765238873 0.338006871555199
1.219693621097436 0.305451167300243 1.488690474304992
2.222041025625922 -0.112597014139415 0.652800341787667
2.229344556479021 0.080795934587248 0.476233129421133
1.424912287006362 1.447649138413502 1.065876234979661
1.075247408654133 0.613408674593593 1.391184207830165
1.064617220973384 1.059246629659379 1.212414155865802
1.918169138729999 0.779236796810049 0.217665183502426
1.027471888145002 0.813706366979287 1.351510324747029
2.081145126666937 0.092346674029685 0.285068138689161
2.065351222440819 -0.199198271581786 0.867301100066499
1.857331878546133 1.259553197883126 0.227848447048986
1.711964997951896 1.696042597524889 0.809041068363210
1.836800526497192 1.465210751290694 0.360074701784290
1.796885438463458 1.744704191235098 0.732912626063780
1.688609515706585 -0.227777740277692 1.266364353502617
1.437424107552626 1.633461545939825 0.972219357303888
1.390990784618467 0.035718236412114 1.442380885905427
1.119656222556320 1.352529415997431 1.190606217342972
1.875706121977519 0.933724301168464 0.165512046998239
1.011473200664611 1.185947812714171 1.206521352415010
1.461169573071336 -0.189769110341781 1.418760606186341
0.955980967949479 0.972765144898181 1.330833627480023
1.789377258234036 1.697318585054650 0.495196084241700
1.933902639575550 -0.297246017248129 0.954199832527382
1.952557234251431 0.377625122552434 0.058620146649853
1.882429005530171 0.527506611024796 0.107811953633434
2.112750118404150 -0.206402606239848 0.530033427249404
2.090364375508614 -0.012041751856580 0.396422044076764
1.950946749606661 0.217689978496724 0.179914070183701
1.327374898858307 1.637728930237981 1.032944878396024
0.996850584108666 0.482347749912467 1.392309589716795
1.033247875401531 0.249464461833936 1.506217154785480
1.700309250989559 -0.394855690863719 1.150205116305184
1.831960965617184 1.337977837705777 0.154799437053322
0.923294809107093 0.560789553299666 1.344796461252949
1.773807141404369 0.725797813744132 0.028347438173808
1.837681408331294 1.118222185138047 0.044904520929401
1.987186959635794 -0.373617786726576 0.617822582433653
1.100516018370620 0.124340322073941 1.499437614624338
0.964768602104687 1.154330076435428 1.187349329760081
1.813818218639740 1.520351838899108 0.287955951361679
1.488602829554837 -0.275901894392986 1.293704245516954
0.895890033555078 0.724792529360734 1.307207942322193
1.929885976831102 0.005757016902529 0.144026925751088
0.949430288906090 1.379257068182366 1.142238840319828
1.494957583146186 1.844271027656203 0.806922139918588
1.934076447848735 -0.428912507809131 0.814883195350095
1.161074960821131 -0.068839292477266 1.475246863285377
1.659493318300261 1.843347286649539 0.665595478947920
1.799942675334870 0.315581295223657 -0.020617200131367
1.958898125512287 0.210623698608617 0.051042688005036
1.102816095042873 1.557407354260215 1.085677626234439
1.803283965507365 0.926041090113070 -0.039542874131690
1.758817213796312 0.519200008799274 -0.063650996673921
1.339636070350629 1.747545355908511 0.918173566497387
1.311809295639667 -0.167222309741536 1.500742001368192
0.750384138648828 0.955344065581421 1.284783283521461
1.524667196752634 -0.411736297833410 1.206758566513705
1.679255765666569 1.741472401547009 0.386331768879941
1.682384242454771 1.242500050255234 0.026886232389280
1.698923081778412 0.603113317648473 -0.147197347391041
0.911083999715289 1.316890722118349 1.132423442869078
2.018119502030387 -0.306142168087450 0.304893281931384
1.740738498014865 1.445531655428387 0.069338546708721
1.691013843577322 -0.556554545367551 0.895240681377234
1.913022836888206 -0.199202874819995 0.176530894714540
1.692983953924015 1.019764246220026 -0.029886638474040
1.138477890349315 1.671407467957916 0.983323059272630
0.830066046568730 0.314275724446838 1.424581562385753
1.910281446336559 -0.417633895133117 0.467262064467738
0.906383660927948 0.232242063335779 1.407548594866779
0.691500103159056 1.046045182163966 1.250878591882131
0.797877152074125 0.485264201870961 1.381900486344944
1.625110429201619 0.860190266896240 -0.116855350189778
1.349617014983210 -0.317544310504898 1.318699101641794
1.699343467327331 1.685547985674225 0.201230554815742
1.508481923480140 -0.488911060569298 1.115936566508648
0.918364017429187 1.508683259903948 1.082148976263489
0.894815197948790 0.032746141619208 1.460894894231771
1.793233779876121 -0.520711849496287 0.563298164281015
0.645680710787941 0.667456666241399 1.339545432257987
1.475921848525447 1.871451610620488 0.542877558535196
1.355841065959134 1.922140664368779 0.668661730410926
1.043412236310971 -0.066416506922705 1.523689309656443
1.721435367058571 0.274725651517026 -0.179426526590609
1.806288667055910 0.050905246150172 -0.122468713403984
1.678898628796394 -0.619386027729603 0.773324725865793
1.692695246888339 0.420478289008787 -0.159180767218844
1.645742904985882 0.955660068847641 -0.141403533642593
1.623082361950789 1.356772242004826 -0.008731069885616
0.968215918009456 1.636968387079830 1.015925696317489
1.333376142180568 -0.536650431415246 1.275456338699744
1.592862820976010 1.166844632572920 -0.129212945437577
1.817332660779603 -0.100935205809388 0.056904018960281
1.045747957111637 -0.289298552369267 1.407562383169959
0.743702177374651 1.214003282839484 1.241229601509650
1.171499174423911 1.856301371733650 0.752153304164772
1.838814195856664 -0.213545146989890 0.055798130224592
0.664835891429381 0.839632591572118 1.334082555279960
1.574898253941971 1.835270930770939 0.282618285141453
1.604184806622455 0.557343419978452 -0.271658362292196
1.937815568429685 -0.386761777435364 0.165385427804850
1.584738909293805 1.606545516491041 -0.006689404848961
1.171022871923377 -0.405190655450262 1.438371852692787
1.344474518355093 -0.557094153139140 1.081487306740263
1.501109788464687 -0.585055945023650 0.801095101804713
1.499724989245542 1.139711151245876 -0.237127034008175
1.793883941371176 -0.446233229142796 0.339895025205441
0.547042902746220 0.995399647362742 1.201334573208951
1.524681953663695 0.796531485209341 -0.227950540243338
1.000233469933416 1.761853053706141 0.856732742713076
0.581714323630679 0.246288456274412 1.437453240153500
0.725909394791053 0.164867472175392 1.490159135814910
0.612615797684432 1.370028452216552 1.103993791705989
1.534849869924775 1.725365169437387 0.137413131421725
0.577007331956431 0.406278488653248 1.340414841150048
0.743027595131543 1.569017590871113 0.973377779816546
1.796441066302199 -0.590715922227408 0.444617026260489
0.711961327761073 -0.028603305605174 1.425394730262132
1.515379696575331 1.288781296952957 -0.178020453222957
0.524548801616408 0.599899903283730 1.329350425325915
1.528432667036347 0.906451773677602 -0.307312931308467
1.235896904108320 1.927112806905561 0.372222845221935
1.348607906273289 -0.642079763186422 0.994262219160840
0.878114313028076 -0.193418954912960 1.515820023267167
1.494247051035439 1.463835699803117 -0.117643978283744
1.637642083039863 -0.685091892649903 0.494783175257885
1.609075098000073 0.213609850174522 -0.274376992764382
1.643229925743676 -0.004167223203044 -0.198567425590847
1.164890716972699 1.895250189701137 0.516166650299347
0.485695371833587 1.135451887508787 1.219140049270496
1.522381198529192 0.342664790409239 -0.255705698531904
1.721927349802019 -0.200479899622871 -0.129271940493946
0.931850816534440 -0.317189380573755 1.502157130124439
1.774568797307748 -0.244655350202618 -0.099587476765525
1.564773406752538 -0.756039973434555 0.641271603697462
0.788092066628305 1.759061274525763 0.856170514329125
1.510186354540993 0.531841490443702 -0.335486433500894
0.462050551131125 0.792030021405289 1.256899629829366
1.792504191384842 -0.527433904279704 0.259409187280204
1.708131823072440 -0.481301419224671 0.076169110678462
1.043941779049848 -0.511026029907970 1.413868016212214
1.315062407706122 1.911176810626202 0.266003213875175
0.636544409578629 1.497924390623107 0.967756395685636
1.358747786745950 1.712521158733673 -0.088676999293650
1.045739087952063 -0.582274411483090 1.281887514385082
1.390796307392380 1.048377987580600 -0.403028057894165
0.885435215538209 1.906284403468452 0.642031378465804
1.128160516860835 -0.608463639628835 1.224941975671625
1.485733564745943 0.675785395363989 -0.436951892260991
0.352613436935074 0.954765041311085 1.231977298316796
0.424549398589681 1.367668967461941 1.092525255065013
1.304100294851136 -0.771156593362186 0.727685225350655
1.408034224416904 1.467940265969878 -0.261388801508033
0.382538556807793 0.178851523408692 1.426205979301895
0.475734169371332 0.100115857592531 1.388120902905212
1.092189116934089 1.887293044075121 0.311694139993798
1.128734906357572 -0.673568152695396 1.079859816775748
0.393200848078068 0.399722504649861 1.320959479925365
1.316663747320151 1.228227062779975 -0.374355456572107
1.378632123415495 0.780073668907401 -0.403887332398493
1.274507722675718 1.744571840594153 0.014354770051434
0.613157949393742 -0.104937711118431 1.498749051483315
0.585881637249289 1.656777955595950 0.844070104265376
0.724744272979040 1.861901766199066 0.759710259036542
0.879638272040543 1.861805982464173 0.407119957247007
0.302566138649476 1.090167937382950 1.207296416452432
0.331038829669422 0.585860361915659 1.330849546595977
1.501562383495738 -0.686236854342726 0.346822137018417
0.648919790252966 -0.233868240312142 1.507791782374236
1.464804640428849 0.074477663880716 -0.414558509773951
1.293884547888408 1.595678167650838 -0.250932383542048
1.553300707840477 -0.027205131926967 -0.329590536162269
1.394979963381480 0.196152806370677 -0.472068034314767
1.533247074167553 -0.284947919842138 -0.247480468018124
0.427576513865540 1.440781543379363 1.051781944439045
1.612782286662282 -0.650421451046464 0.222804454176994
0.723913426356862 -0.380066872674530 1.448301115810632
1.652898279192777 -0.331881742304737 -0.200670694011209
1.640497608174234 -0.639711529475519 0.103832723231775
1.040150641320259 1.884294614190874 0.057945804851691
1.607109776937766 -0.470054899850955 -0.024202432957534
1.153013751989008 -0.838222251031873 0.859798456481793
1.308827256559349 0.455400351116320 -0.435574130164325
1.425318492314880 -0.734776655133200 0.488258419543553
1.313366410965600 0.919683915193666 -0.515833742058493
0.856053719267075 -0.576024381490047 1.398907174273240
0.203826304252651 0.745033122724152 1.194250310498547
0.919176002509510 -0.690859668947106 1.339186931583426
1.295890929790539 1.339780300758529 -0.389943735265155
1.013542594655503 -0.712698378884752 1.124527595201631
1.042762022032528 -0.771082640600322 1.012098745696592
0.730342230236855 1.855601140705627 0.497787514513543
1.361095255308630 -0.784595103890347 0.502373944960083
0.291085068369842 1.287362024130905 1.082591070686476
1.318257136744553 0.575895179651990 -0.534186087007918
1.088620115584202 1.757643670690036 -0.105865980662475
0.189717472712410 0.867417585159250 1.259587845625146
0.515929911574117 1.719719887725117 0.782085836346646
0.419371915145999 1.558888539956699 0.847444524571383
0.812169533326488 1.839331815955421 0.271177086856777
1.268982660131110 1.079747642126301 -0.516692521659070
1.207136942725815 1.496038064012382 -0.340577548284285
1.210723390472529 0.686769280378362 -0.601813671756116
1.173793684979461 -0.888778435501984 0.663755102708283
1.001328102914064 1.744830556589904 -0.101307691979324
1.377288661883139 -0.817873781475918 0.356922495919066
0.261232769479707 0.115981722936306 1.340186992919890
0.266463455292892 0.023099334969467 1.375902142334654
0.726978398923963 1.805415549949757 0.374853279534683
0.168247956577004 0.280080561702762 1.328164521545218
0.182560022308113 1.384677132009904 0.979582612418302
0.188170655736958 1.034017435976234 1.102416546709230
1.406093716418023 -0.848226376851516 0.203996842098865
0.383759480375502 -0.142853554353825 1.424462678060755
1.379585026802249 -0.017041880550869 -0.463639492959324
0.480320061951327 1.842243822384580 0.616820752079068
0.340960013751965 1.736755860105639 0.795985097320239
1.380361182833391 -0.210290268686280 -0.395891635181970
0.078689064979865 0.465501566570379 1.318902859008083
1.471063822252572 -0.838880348934448 0.089770474880936
0.475152932909706 -0.366169563333813 1.482236780975652
1.289295145330059 0.102444474947847 -0.572153739307937
1.487745578408223 -0.287344420686063 -0.351356971827578
1.117683267758639 1.322115971243906 -0.518176374187309
0.865882575462973 1.857025253272569 -0.033373614008244
1.195245377218527 0.820774772717080 -0.652620359064776
1.532316522970588 -0.461695889846716 -0.267832551747738
1.466579897671028 -0.706830494795865 -0.082747923185845
0.554061324651846 -0.528523636758886 1.427657748926335
1.559687918983109 -0.584682465021053 -0.195407457321892
1.222131712148149 0.258630726862910 -0.587992746683901
1.094862602064584 1.654547826069416 -0.326322571790308
0.642824583005423 -0.622181854573501 1.349742324155025
0.667406259904838 -0.744826872204224 1.265858023470793
0.736462820754065 -0.795989097944536 1.177430137279687
0.877570536856181 -0.835984515428282 1.075871374882309
0.089461208508413 0.602871704917351 1.229996906387767
0.928814287829982 -0.879108275112485 0.926336538469912
0.088491392182483 1.133632902154049 1.119017074343452
0.212396587189970 1.480305294959720 0.883379738729436
0.506858750102727 1.749099875433000 0.448085555321345
1.098694089738131 1.458118339445113 -0.531918504453003
1.213512747613492 0.485952924075432 -0.637083036135458
0.886522540183640 -0.909758176347771 0.757577619657107
0.613646703474752 1.759784905007296 0.109959758415184
1.132690758378005 1.039394162249146 -0.596337006842320
0.913381443911427 1.639525084370889 -0.282859769361444
0.055711069056731 0.827197861299518 1.228681352305289
1.158537837384597 -0.881350136630055 0.364643063113378
1.111325730472934 -0.934819306966770 0.503055017335161
1.118704775889571 0.622446620430065 -0.722003791003369
0.907308308052330 1.529342815771361 -0.425213373545730
0.155742589566642 1.693155605420724 0.727569813668125
1.295844347457239 -0.985426001142755 0.215434189816077
0.024101234763439 1.301422265306164 1.026529369981367
0.759264171329684 1.669261344305501 -0.234243939859576
0.457478844024980 1.805667616592990 0.272897159373751
1.008712799144039 -0.926471409227183 0.639957931248182
-0.065727975150057 0.936492327887534 1.134223707911018
1.035752410296696 1.216482429271379 -0.668871878733423
1.350338224890764 -0.959007014649837 0.092691756972627
0.119899026430712 0.054814902585823 1.336253511328923
0.066638422812025 -0.066358081597910 1.389047435041712
0.199445755679879 1.685187541053322 0.580110670804074
-0.040297771084371 0.165676262660691 1.281571794166441
0.193762388021350 -0.218281559976661 1.378223935133009
0.610050059197979 1.786659544577189 -0.105948240299867
1.156568367144478 -0.071680971174192 -0.552198286351757
1.331827506400859 -0.871617556988205 -0.081013535446998
1.007858625949414 0.823986493860393 -0.708136857562826
1.286781456984574 -0.207454985785998 -0.525793378641500
1.098963944786490 0.082687539714559 -0.689323810852505
1.309632975125494 -0.393963380212788 -0.537800856864008
0.319173619606165 1.741013773147709 0.480550087082599
-0.067381200172100 0.402841182434279 1.226451826062624
0.257318024611950 -0.361112888364381 1.395423243332113
1.313176559229010 -0.765468253930288 -0.167974283160618
1.318803318841806 -0.568617216813753 -0.352919466639361
1.365502062741632 -0.747042151371047 -0.318363658801903
0.053446934475176 1.445363566335207 0.855252692646899
1.044669953183502 0.193767627800246 -0.701289491380191
0.297233260138263 -0.585315734521842 1.359953991885357
0.918172208721975 1.320983337195619 -0.583731940151447
0.670621738230876 -0.904024478645449 0.905452779672090
0.637555110541759 -0.887763882417212 0.984646846823445
0.797589360318977 -0.943987398999561 0.861570678742276
0.541379366989420 -0.839386913162977 1.168558855286002
-0.054069293321750 1.095657090740636 1.090412750529409
0.393963842183188 -0.679426118481949 1.335669109720383
0.567284257057491 -0.818078965851540 1.238035779549902
-0.130574447333432 0.521941348286454 1.216436538312261
0.373064428346299 1.722149337423211 0.005166384715726
1.022765701582347 0.956085864288733 -0.795179786703838
1.055640061238069 0.354183259414768 -0.796111530064322
0.805370264803597 1.518814705909300 -0.559212508760959
0.186201941253797 1.750989979813717 0.298142502435032
0.061748309416410 1.611134405244727 0.758946923258904
0.998952778354883 -0.974994164005249 0.293931063580512
0.698850206882654 1.517426244038317 -0.474079816820600
0.618427708250286 1.691172442346184 -0.352921496689324
-0.146871905425464 0.723575084507699 1.162760502950811
1.102821902356788 -1.044699245023068 0.190622989713087
0.909744597522534 0.559984215451285 -0.788912861671300
-0.117580457187471 1.251941138365914 0.959277917928276
0.008565866346471 1.658631628398868 0.661095374379118
0.855677442195266 1.149783330071082 -0.710709978277011
1.056648504964904 -1.018844017327016 0.135731442031015
0.553394975103588 1.679773027286230 -0.268313700998624
0.237313474299540 1.664810182930476 0.164437826906043
0.024038006905549 1.687560066627271 0.507192283319573
-0.190414133369207 0.798589468171672 1.125459400704847
1.104397796482868 -0.956333913833886 -0.009461885633407
0.724774578609535 -1.092399369340620 0.546025103220947
0.144362012045311 1.615566187714854 0.289515389095348
0.867280114952024 0.729332540256879 -0.799630067689368
0.405683255014495 1.686377481395319 -0.187530738823737
1.243917290349252 -0.987989846023494 -0.111895550334446
-0.146265012199211 1.350838799722470 0.831091210777044
1.067364792432606 -0.146197767396714 -0.755211343415037
0.794628781643438 1.298669243416644 -0.678652629324068
1.156806834762670 -0.343911467655172 -0.659481860266018
-0.143325098849403 -0.034021341448117 1.302624652904925
-0.033438901659688 -0.125326237247814 1.273850968572066
0.979693926227390 -0.016848647110112 -0.789643129897885
-0.198879213243758 0.149485713763814 1.198161901463188
1.128041671989177 -0.495264959764083 -0.602592227993831
1.158931655312607 -0.894682596843133 -0.284456604917330
0.012440265982072 -0.398608132165095 1.350018625824649
1.178765633326968 -0.625267340524085 -0.523973062497845
1.185877324007925 -0.787488415286427 -0.389177559433655
0.883063550262080 0.095804826435529 -0.836179997362598
-0.291659183462949 0.246073211521098 1.141148322616655
0.101925325893504 -0.498568733424829 1.348577036619756
0.630583413907541 -1.024899628480654 0.819583182633002
-0.288156997913501 0.979373784963617 1.061811630491380
0.663314407053917 -1.028451894532425 0.636320402978371
0.572562739785301 -1.000279455749687 0.951825003990444
0.713547392032123 1.378161255611260 -0.714288120014700
0.457541621534607 -1.003236998225579 1.043650041472646
0.512139567721023 1.535495926330243 -0.384928683615098
0.281625054844278 1.618817738007924 -0.065226953328169
0.783794023309650 0.874714349320273 -0.900259883256872
0.149690881039815 -0.603952211251853 1.350351959586902
0.509560578180595 1.576330174031237 -0.500769905057436
0.607341294441735 1.486878285438376 -0.616415396085950
0.378821933042273 -0.968360049240237 1.092421714117356
0.663786654298785 -1.027706950824490 0.619392849375829
-0.181763569890474 1.544924483958688 0.742343375496422
0.301426265460919 -0.791307909083766 1.214812659874174
0.969143706380818 0.121627419583567 0.507008474492127
0.607011372617548 -0.157259610793989 -1.313553441708541
-1.318654250990104 -1.797934948859050 0.582975702350112
2.739290568666783 -1.567112081138999 -0.654698590813108
-0.398464043915780 0.699009542680501 0.436654192689414
1.272082106691717 0.693322694665093 2.330198801208181
-1.345505532536833 -1.104617041502997 0.959756983706672
2.081652923660010 2.533994207506655 2.052479763549474
-0.289967554756789 0.122276238086130 1.733059666221351
-0.659218023166676 2.157812241553137 0.208582443261177
1.294714036293134 -0.897747826798507 -0.174617884129473
-0.239694959666570 2.354042239444296 1.072135213369396
2.499779244262498 0.452334870999478 -1.584924081001441
2.687036905532221 1.013165775494842 -0.116913504660423
0.263118204253871 -1.716205528408286 0.832724525240362
3.599019780653188 0.207514694771901 0.854133543403107
-0.753751603277663 2.747309546142611 -0.793768534033731
-1.092379101867446 0.121890860591583 0.388987751180716
-1.713256605456664 0.203672660116765 0.077459827993893
-1.663454586726743 1.419108075208547 -1.568968650400751
0.687848986384431 1.084698849980980 -1.229950990651429
-0.491520040863482 -0.035641427166497 -0.546619215801245
1.167426331152754 0.511248565976329 1.577528260417038
0.523901206035384 1.134067266276561 1.092064408361436
-0.803049393793478 0.096694371563566 1.939610619642558
-0.537925378269876 -1.355275599304249 1.312012654781259
-1.119679374154333 1.699216092092961 0.542099629720118
0.388346275906978 0.409905065563786 0.111598347402595
-0.246278986382218 0.185894025349142 0.357873565174846
1.261498302168612 1.696229435397981 1.915290901461497
-4.191359890902357 -2.437722783635623 0.446607637328422
2.678599726035389 1.798213424459467 1.515012501425302
-1.498171098606269 0.329463999443256 0.018996626834802
1.263002462906075 0.802434327424891 -2.890075255134802
-2.535061162289632 1.438019927211750 -0.380223812795312
1.025353937299572 -2.165949792289636 0.254751595320769
-1.615972920994650 2.813417241178744 -0.873741175296204
3.401779445970373 -0.102376586957841 0.000635065430840
0.142958861090703 -3.125035520465351 -2.060571042635446
0.232587392018447 -2.233482572962906 -0.885476596573283
-1.032400361236468 1.887879245653719 -1.065196770257196
-0.448867232910913 0.342681381353765 -0.255979098712933
0.138525069216108 0.011717676980886 0.717489384997138
