ply
format ascii 1.0
element vertex 491
property double x
property double y
property double z
end_header
-1.494354191430172 -0.406129500067281 0.489177737246475
-1.442980589242480 -0.397282560812368 0.322425745941641
-1.480821097673418 -0.517158913482128 0.656239490396347
-1.468527093313873 -0.241352465436959 0.351399248308294
-1.491983313236988 -0.590514205428348 0.419018536646898
-1.493761142512737 -0.186478409103777 0.621244126789426
-1.476928818984989 -0.311194551567596 0.777441006571845
-1.550844084216941 -0.090990915638920 0.611875278239979
-1.462199963820436 -0.056314957754507 0.481747355238308
-1.359226373890194 -0.485593912941298 0.268269506718810
-1.516292224067209 -0.744901691892196 0.609210431688574
-1.349129448048833 -0.537896583060464 0.788119862622659
-1.406594645703777 -0.286241406366501 0.165458245693120
-1.438774359880870 -0.068945341316841 0.320715413795709
-1.339139675501555 -0.318540346917533 0.864388305749537
-1.238680138269204 -0.698454632801553 0.690338143191387
-1.376566176762620 -0.724731867954910 0.257538298895693
-1.480049094313702 -0.061395552189008 0.876873701029732
-1.198570084883921 -0.572113261110812 0.824575164116759
-1.314706835925166 -0.254639346325041 0.966647138740615
-1.397793088314943 -0.010829959759382 0.192574499661274
-1.520691363107579 0.092280249905919 0.639105942006349
-1.524865254766093 0.118094184942283 0.697134913556026
-1.237921323412761 -0.609599232183722 0.075463095172308
-1.234833347545276 -0.212948212316388 0.055183211580462
-1.157061670656916 -0.526920650687666 0.904143846411027
-1.447504091156109 -0.880642446768969 0.417586737065055
-1.506090646714276 0.186973469739542 0.418538598627948
-1.056209228346652 -0.718995571038006 0.719911164371613
-1.191743630082765 -0.841065232877723 0.589814034945711
-1.159210525291053 -0.295898718760768 1.001765381551635
-1.411624117282690 0.164081341721269 0.302048405197083
-1.293853050183309 -0.033522439452743 1.020353664587789
-1.241620242618047 -0.012160477251788 0.050284352988924
-1.273030452094813 -0.840490548098307 0.163929530040253
-0.959699654708798 -0.578500228711485 0.827036518762675
-1.021828068951290 -0.370575940766516 0.987247326081538
-1.168903744924072 -0.475079923200215 -0.034014174687068
-1.177928313121244 -0.527904999662736 -0.062724545613584
-1.391490375908628 0.227387170284163 0.133047408431598
-1.214918105993631 -0.075063104663954 1.058160303133793
-1.445328017330108 0.295200556746541 0.753638955464708
-0.980319929244626 -0.872567165298620 0.553685448708237
-1.458199027409581 0.215731248709531 0.846182434476826
-1.170595253008551 -0.277493708591911 -0.099640627764186
-1.488621012868289 0.355413654890227 0.577493471085247
-1.380519857871268 -1.036868525882792 0.337892513938830
-1.409215859009759 0.184268349658920 0.890798504683512
-1.164837030682948 -0.712653232638002 -0.006363273766779
-1.119524302181995 -1.024446640410024 0.406315868580986
-1.472670558408745 0.333813409623893 0.477498893380525
-1.291319690086365 0.109325353821799 1.026094307239212
-1.110676173694495 -0.171564189986998 1.075285332229332
-0.884979776253091 -0.402828730286285 0.984921200343791
-0.766758594573520 -0.561686723300117 0.751503246575646
-1.095565311225769 -0.029453000804360 -0.063898001472501
-1.381825910308843 0.404016201848359 0.270576190969858
-1.244920193833371 0.207459257728823 0.021223477280828
-1.228762781923058 0.119346512327461 1.068288943708867
-1.186257561594390 -0.985977213446335 0.041766637524053
-0.911315266401125 -0.200457764240979 1.141967589395096
-0.899406401491258 -0.968798858988322 0.434854364682545
-0.785096804109518 -0.791442303752084 0.546661339085931
-1.015115527536933 -0.483654006079513 -0.158158666563109
-0.978731947327964 -0.634133850621654 -0.171269206840805
-1.387240703033322 0.411915101800010 0.847142701915942
-1.361114177907091 0.431492204966865 0.168992157720690
-0.713504514689801 -0.782239604162828 0.619489322290321
-1.086628813470913 0.084078891945370 1.172143167047529
-1.403126353366735 0.469355814099519 0.715081927899053
-0.969060582606265 -0.219560613976957 -0.217324721739540
-1.234290952830462 -1.164928690392996 0.189573616459195
-0.676088284755760 -0.459802388379662 0.928275305208907
-1.393443996224131 0.495532450276950 0.524663712719245
-0.986409149169457 -1.056586282317689 0.290515368813559
-1.044914443338424 -0.761061837333231 -0.123954716295869
-0.667510546009030 -0.619161802927468 0.687679400613930
-1.124747737874628 0.206796593814451 -0.078788926581779
-1.191425058574631 0.303176735152456 1.111122927567373
-1.285753905481852 0.506495272957817 0.385495073302034
-0.800285158388890 -0.267461339416282 1.088634302848611
-0.994610100099221 0.038299875302171 1.178111419412147
-1.028098296702062 -0.055666943403864 -0.247532496522207
-1.245441901684737 0.363975475961041 0.059264981474013
-1.320990074503687 0.436448897825892 0.955974782849474
-1.112987083368371 0.274195713767828 1.132661862421650
-1.243993714255709 0.574411220285291 0.244989023670976
-1.044256046174662 -1.032929846179065 -0.136824466646853
-0.638529166446470 -0.875346795412362 0.411163880874236
-0.713401526366354 -1.013480078520980 0.282542682502751
-0.815472237190750 -0.026287380791814 1.215536281818121
-0.510269492121160 -0.508282487927643 0.825219639557036
-0.566869618974116 -0.755162293761609 0.537811795135242
-0.876460349311280 -0.475236150438317 -0.289879639354847
-1.009228096855054 0.217563282465643 1.208257122427770
-0.585412602172308 -0.232929935468232 1.036346214174810
-0.886720324190487 -0.633743252819154 -0.265795605264750
-1.148597838765117 -1.247836265595790 0.055035615536397
-0.898129813354044 -0.282214921325732 -0.339641544792171
-1.285153122303469 0.655438185813071 0.837603441890065
-0.828593495447576 -1.116012569593431 0.169639469346856
-1.129414789114567 0.564111890832100 0.137264493117782
-0.457219418071579 -0.661952234118813 0.627306278895860
-1.006421409347604 0.198500097148381 -0.232295780870692
-1.256781147411056 0.643705788171726 0.651505799527240
-1.082199057115795 0.385537762729810 -0.096813022314708
-0.905064378700790 -0.851608442795510 -0.265123927705447
-0.709648588672094 -0.093183559558180 1.147945654062416
-1.237111836331235 0.675593707011597 0.515566417345925
-0.832751699744565 0.158945660653295 1.240585238748936
-0.863421002146664 -0.059860277655587 -0.353156721421266
-1.282430603827655 0.679489611017455 0.861025721151689
-1.096743342923951 0.447868715817726 1.174761455844286
-1.119787661139132 0.744766274017974 0.386817176005279
-0.424512206882780 -0.306299641952437 0.984393688543787
-0.386880345073544 -0.528491260934145 0.789786357185263
-0.504214202761847 -0.903903785218729 0.325452078514728
-0.970293601698114 0.464692268313738 1.165317543848833
-0.987747253405720 0.582599165064438 -0.011525881188929
-0.890155572366116 -1.042678351417571 -0.189033604724664
-1.115308137035077 0.514279627717525 1.126368231943866
-0.644456609807658 0.113982814221065 1.204429451386428
-0.570223127281648 -1.104987762231411 0.174514564035674
-0.392034379853917 -0.774629254569672 0.406814312376720
-0.503379747873107 -0.128155954479374 1.161083984150067
-1.208197316332557 0.700572903005719 1.051380552403957
-0.982888935400929 0.361175384349737 -0.272178778261140
-0.963917580122727 -1.313731980654366 0.000049799969340
-0.699940140360092 -0.473089820490297 -0.452801183071833
-1.006203688123101 0.719910086098234 0.242729777504688
-0.692457408593073 -0.700750286399764 -0.420269148589953
-0.873371169822497 0.158997880549553 -0.333430210869960
-0.339369486034453 -0.638870824010221 0.541039014259249
-0.712377105474765 -1.221087318599791 0.043356078220452
-0.824830989962280 0.375740507599851 1.198223022074377
-0.705276984248834 -0.290730945923071 -0.472177255701347
-0.729379123048715 -0.883198191979389 -0.343908834865183
-0.457772452224339 0.046619864681541 1.103926659213675
-1.092619702467261 0.804493751167383 0.630091066470333
-0.283376952953896 -0.356166103881288 0.872186423584264
-0.721213681938609 -0.098443657966595 -0.486586279912949
-0.651234002518320 0.355269738161577 1.151455823903309
-0.864480481840812 0.537507602268294 -0.112400269278033
-0.314764355409052 -0.168184655749122 1.029458039935778
-0.217568219830623 -0.524983544054436 0.654686494281909
-0.888169567400039 0.706485127834419 0.092320202725596
-1.024555349366417 0.851252737015389 0.525896997399406
-0.339457867198794 -0.999150865241902 0.228417776130653
-0.818513377116347 0.399315450220710 -0.378714434037013
-0.711032788637144 -1.073126646837487 -0.366696551461128
-0.221007735844874 -0.814787122828272 0.370497650331193
-0.456809751650785 -1.075801799591382 0.123765439795310
-1.109468888089542 0.843934086717217 0.872094569415221
-0.762562803028103 0.578297809194613 1.145765519566909
-0.856106643701264 -1.375778485809453 -0.125342236363077
-0.350051337806805 0.084206607403682 1.079720840988920
-1.108697979894548 0.949378364189607 0.711612859197658
-0.476248206417971 0.303966409599613 1.134786191680563
-0.950648303246062 0.843901868310410 0.336247478327142
-0.721048745764046 0.141728799559975 -0.442880674728333
-0.591731800379974 -0.472702118629264 -0.487162267162725
-0.145196257192701 -0.696815119564200 0.433342019497702
-0.551981762915579 -1.200855005298975 -0.050756028927801
-0.985677183208151 0.747364099154009 1.161080084652605
-0.598997751722387 -0.740598143638443 -0.464501454301351
-0.557959348071974 -0.319010774950250 -0.528996610358316
-0.202949201942101 -0.143242122492813 1.025210659338729
-0.764000464439360 0.698395309463196 -0.018536786390137
-0.680485814346309 0.551755327170230 1.148234297766474
-0.070845104863233 -0.374381641656851 0.811226336132127
-0.763935014705835 0.563064191732573 -0.240586393703576
-1.112393235899056 0.884454056752728 1.060189469237466
-0.597559470810545 -0.892769844340956 -0.436817001074028
-0.777711728941252 0.718931656512121 1.158744671589246
-0.822143465066121 0.847602437356442 0.236395858200869
-0.538405682144428 -0.103156522279029 -0.539462726476335
-0.052534314140121 -0.503602080610956 0.563042919146031
-0.269882306140495 0.289080003193581 1.066770316387040
-0.177504632843418 0.066412479988806 1.017795146260749
-0.497116364356162 0.492505296885250 1.072232359196713
-0.664555240623813 0.369766451310034 -0.490959031473293
-0.160152409070778 -1.003383359706920 0.123506296308391
-0.127933412879500 -0.852811074153228 0.259037848553865
-0.621929753286824 -1.122422788481330 -0.434966456768250
-0.331820390228645 -1.104799401724917 0.001754225253481
-0.754237469211166 -1.451385172302727 -0.244697613280977
-0.949340540101286 0.994985665695780 0.667075633455932
-0.613592316425778 0.716526611681302 -0.147543971254743
-0.519275459151953 0.144586097174094 -0.542789155611465
-0.056135298282749 -0.173407288160085 0.882944414599065
-0.014427631944073 -0.725360577800121 0.338558385686010
-0.644537930671524 0.844734842209769 0.094844099462265
-0.386314046804102 -1.232704965411894 -0.096455337713617
-0.967772726621918 1.015723194520831 0.869186689425193
-0.595553656723808 0.491337815059422 -0.392426024303218
0.019182458972889 -0.366928851056130 0.696505880940632
-0.111384624846785 0.237214861168343 0.982275778130625
-0.261941077366221 0.525340842706709 1.037433396332852
-0.406671847857561 -0.511405915126500 -0.619939536833284
-0.429827124723382 -0.744528065239929 -0.606294452887558
-0.635078931092302 0.862546505963288 1.078150099187325
-0.812728505665490 0.894201194282077 1.148080298063022
-0.011373978103569 0.009834797002641 0.924429056767861
-0.376518970628464 -0.314911318576477 -0.690102564868140
-0.685389361528996 0.985658442957729 0.309236051375310
0.125516717439571 -0.593665329903421 0.450192287808809
-0.458783604735794 -0.925876667331307 -0.548217125566419
-0.540555636380013 0.370468584230437 -0.599279550629897
-0.434674735551751 -0.085088561262037 -0.669630599882425
-0.923939423557953 1.075067747539612 1.112799646109386
-0.486850032603084 0.831478050927483 0.013111723951998
-0.661104471705603 1.036678773456557 0.398435063297772
-0.611072725237510 -1.445075034801123 -0.354537890740561
-0.458112740364545 0.698481485681350 -0.216440368409737
-0.148306817560806 0.430898272195341 0.924124518616199
0.174566324582780 -0.187344776713648 0.827311133143679
-0.049447195620796 -1.034303481183011 -0.005311700075605
0.014244141728899 0.245763870263064 0.867922160918109
-0.711456075936862 1.116339071996457 0.599011294123675
-0.604954286051362 1.014981461337367 0.227225246261918
0.058389281683240 -0.905209866861704 0.150406706999759
-0.433832698825262 -1.153299467174150 -0.574794363205328
-0.094990970185349 -1.160851157231642 -0.155148867182470
-0.257948190785172 0.711432109055365 1.002424944366091
-0.417463276972377 0.478058242324511 -0.497695904295163
0.222537834392072 -0.415043138337767 0.629406687513413
-0.842525098041107 1.156903786596347 0.829980489443118
-0.389485958148965 0.171730166832559 -0.647518879002161
0.148834362206252 -0.694314209128144 0.274303884319438
0.174865362961512 -0.002346235832726 0.775950099599796
-0.266852369888503 -1.248207780978718 -0.224360745936653
-0.310302613557129 0.776292128175374 0.961994368487919
-0.466525361352414 0.900441203239220 1.030274082352670
-0.597361356843894 1.019582394243369 1.100359412797139
0.040777828949892 0.434971489712130 0.833596060104158
-0.386289555528765 0.882530713129953 -0.115091251370752
-0.230372664092364 -0.557835382005295 -0.756305327110339
0.222892259727884 -0.599935187377004 0.392454388192816
-0.092354091819674 0.659679120213683 0.894394736094686
-0.246627067117513 -0.764254550354115 -0.722785621737664
-0.407167199482551 0.956309081813006 0.138462119656477
-0.516016817399305 1.094672306311330 0.313223041828078
-0.257931551544705 -0.334267211316217 -0.742732417121567
-0.317031169527926 0.701846996177276 -0.343628017744228
0.186584704305805 0.193210371409021 0.814771738960675
0.256018683212988 -0.253728074266976 0.735539889974196
-0.338369891431854 0.314080039100726 -0.655566634272054
-0.230638068818042 -0.972056459438765 -0.693981393003877
-0.595907906082956 1.209753390047247 0.490050247633065
-0.393355688542061 -1.463613032675363 -0.502927975138072
-0.225989521455675 -0.137762736386213 -0.818277015433438
0.283968936643554 0.007917161723879 0.659740255620366
-0.814532488063622 1.272136343638358 1.032299635143741
0.119788107985301 -1.043359439175584 -0.098808052551992
-0.279953421541886 0.498637349459145 -0.553843628316621
-0.159347047843283 0.807794326628232 0.879225190107987
0.344110288173584 -0.438418872374617 0.486026700270910
-0.657040569293557 1.291520906462758 0.747781533083632
0.246239396411559 -0.903933787158003 -0.022529108878594
-0.229673728673895 -1.149610194056893 -0.695341909345103
0.022369070326680 -1.140670407561935 -0.226739878073655
-0.326379143288471 0.966864603013990 0.967598862872449
0.042094089989146 0.651862707095325 0.851872578252649
0.192200306102446 0.445792081703186 0.802288212175129
-0.252118238889374 0.973661554551003 -0.030858856742038
-0.255465763704182 0.852411269487481 -0.241811912268818
-0.187957132486081 0.146383084509886 -0.820982349926839
-0.475872391327425 1.105860681825316 1.055054447976906
0.356654942269851 -0.736310723605646 0.126443028964735
-0.097073530321353 -1.336038707133753 -0.322682117380036
-0.364949302318990 1.142778386315391 0.232637297590389
0.327288830225188 0.212775971877007 0.723416287926591
-0.423107993761821 1.259470471528241 0.436422666883204
-0.190950574181400 0.624321451883040 -0.494364289149141
-0.099935354859198 -0.550642807987699 -0.863200703315868
0.449527574125453 -0.592001676205259 0.290761512444257
-0.108523811868977 -0.757237013836837 -0.793167552908016
0.492704836367975 -0.272802723014166 0.586929645822102
-0.063662400230496 -0.319099138721026 -0.902995500660706
-0.234057236009246 0.325913011891460 -0.799932564966443
0.020562551993027 0.820992019361357 0.829566926952708
-0.140985754802473 -0.955478984082257 -0.822177550514426
0.154286576036786 0.608679651446110 0.754244525666520
-0.112857443841627 1.024329017836735 0.844705730705571
-0.463208044821661 1.345880287815771 0.647238599589818
-0.056021798226740 -0.108121957173314 -0.850375083980086
-0.226289932889895 -1.525369452465889 -0.548113852261384
0.495836697573316 -0.064168949938976 0.620251186383857
0.362946075582599 0.386758545135338 0.689275212246528
-0.641126229391183 1.365909414841664 0.976905006513381
-0.168311027666045 0.932269654072895 -0.120686518656471
0.318389440848859 -1.031492478205851 -0.241628247111626
-0.180150880970742 1.131750716934625 0.111858813471286
-0.286316503426020 1.162370751209620 0.908145931598137
-0.078425855041623 0.477607546862821 -0.691524403578945
0.530510331002593 -0.442919589706177 0.387087287319783
-0.148117712111213 -1.207350585457221 -0.721652579078466
0.369299711087240 -0.927982889188883 -0.061336248321411
0.209050974640131 -1.191188455405367 -0.327910534270432
-0.103849907902878 0.772444917423415 -0.353547986732444
-0.092288072035253 0.123681958471379 -0.935775105704160
-0.220298638229048 1.278394462714411 0.342514626533440
0.494649740714903 -0.736749742363170 0.056442739974067
0.497719173164029 0.148117583282138 0.574962319235622
0.080038413625847 -1.305445156904909 -0.468754197256320
0.366610767677170 0.601753681616700 0.647779863224356
0.184290793147264 0.874438541051003 0.721867036875582
-0.004957950677956 0.610734597823664 -0.580158527205438
0.018605248852982 1.000129926727900 0.762468880768316
0.560974445173102 -0.638794375139781 0.161389470611793
-0.331699737667185 1.402993990103215 0.575968307522691
0.614511222550597 -0.279309168552371 0.511433594480989
0.038843318205433 -0.568440413832282 -0.909170926319737
-0.074469602392898 0.294960531124090 -0.933716331380361
0.080627690805493 -0.779059709445045 -0.913719980578529
0.501527971214771 0.395937515106131 0.555617386489921
0.066544751740392 -0.388213876447222 -0.965716729397014
-0.066438706456772 1.085648104460530 0.019614047059236
-0.109995817970597 1.197850857647733 0.888020252725934
0.000058449450195 0.932575244069655 -0.207039470121959
-0.133334591724161 -1.539531102107614 -0.655842028713094
-0.507509274967861 1.450519121058019 0.924038689059956
0.613453930450379 -0.082606648312870 0.436053111172842
0.023810745904090 -0.914071559028304 -0.918515753842484
-0.112594954529500 1.232528735824533 0.239209063726314
0.108745477411051 -0.121729132484740 -1.007423074103122
0.003402636185184 0.423015119861269 -0.808533938586089
0.693799075438798 -0.405697452427479 0.264243153334384
0.456281132184177 -1.029930780935888 -0.301395170363796
0.058002253987718 0.802209575082869 -0.497913540344416
0.079538233573466 -1.204876316303435 -0.877838827665284
0.319404685576640 -1.202457150678600 -0.453134153230164
0.338659409162807 0.799920964283859 0.582986524723476
0.497739646587363 -0.944279952486589 -0.171526798960289
0.626978315846764 0.192906052697705 0.438818482403793
0.182759470063301 1.067744252688455 0.668870708229002
-0.166122437322402 1.413437184047559 0.442217286218119
0.530292317677167 0.628217179520948 0.509036825405170
0.115334661436564 0.110070455471292 -0.972480271737308
0.612617329853297 -0.773171499011392 -0.070404354286505
0.255701648245490 -1.272598420671223 -0.575807355255147
0.034122921697835 1.276271183656668 0.764582598149960
0.105675962582331 0.611464210416307 -0.667465724075131
0.793475971439490 -0.270259928665712 0.414028982635908
0.113470769413848 1.100880993498630 -0.123203400682308
0.694709639508515 -0.605592455499748 0.036531504147307
-0.339340756653985 1.565757310131158 0.841010820898979
0.037722823513307 1.272493993855613 0.093481262569944
0.638529995696547 0.369626064336893 0.403557902350734
0.119690767043854 0.245838871323904 -0.988811661731528
0.171621512471190 0.972854989471885 -0.327013564105429
-1.118905920624182 -2.679163603619660 -1.624358383490452
-0.510067422114706 1.143172444712877 -0.342928661213368
-0.186821631414645 -0.147559506912241 0.324649876483777
2.454860006483494 2.313454763383665 0.961553163946459
-0.796145443127636 0.961991736842836 -2.270341957377144
0.987365980483967 -1.330274140741014 -0.281507869644085
0.101119992649327 -1.902813681665008 -2.998510065032343
0.223299179996623 1.063484351157597 -0.554137391265973
-1.239108465162309 1.434888283008038 1.804098159653661
0.088996034881463 -0.888593544491738 -1.782585705350559
0.073874696253438 0.764397262618863 -0.285144453312473
1.264003529264618 1.301419198411538 -0.534606797509949
2.202125869443484 -1.200765884732829 -0.380993585735012
1.859002862753584 -0.455860144997394 -0.187041039129906
0.664238219749070 1.108359267963954 1.249245367672292
0.784552278080894 0.651684085739694 -2.240203238329475
-0.237169886485097 -1.196278170139284 -1.527763736243408
-0.144921832068216 0.931232027718918 1.029944580816860
0.005830132703737 1.393570163448182 -1.420534398000777
-0.121293179846585 1.176881380993057 -1.031035684513719
0.553428409939272 -1.830992312699370 -0.925053167001457
1.086491595640066 -0.532154475328166 -0.485870234555372
0.764472445126567 -0.034551482632793 2.544417038209624
1.742384100854748 1.043036264191979 -2.051941598200827
0.677334914314242 0.969210425722347 -3.017101455259441
-1.541059830060993 -0.043478122834036 2.612380595538483
0.042936536042365 0.092593286360959 0.933838612745391
-0.500986846376475 0.330310167383254 -1.467729134582732
1.751596785694321 0.748220469671522 0.773812619495338
1.308435260311436 0.965761898870053 -4.892255872591965
-2.450518199630456 -2.092261080014048 1.246398633289370
-1.241008312141494 -1.800706540166216 2.616124791140523
-1.476166962058035 0.684954571874454 1.140271982063933
0.287354481238255 0.082331011059272 1.921563665782251
0.381260440478147 2.277087173575048 2.391462283896150
1.128315853847855 0.231880415747904 -1.273359286244509
1.736492848200308 -1.365614498365244 -2.209579563344384
0.201441218109722 0.194627721268737 0.066478695098029
0.530141039824095 -0.802843753419003 2.628086291971869
-2.150252985222960 -1.251786369727728 0.332430864780218
-0.693132279628731 -2.781475331925468 -0.787048816154802
-0.109703856685428 0.643960990213534 0.015613749043149
1.061136219173320 0.227472665565237 0.272159094605391
1.093627284036067 0.288151868253611 -1.243995366794185
-0.733604102901908 -1.202858307499132 -0.280380102405116
-2.427892518119206 -0.115950468970845 1.144211814122881
-0.459383426888530 -1.275447213237508 -0.838707835189068
-0.072957636843330 -0.123620843877529 -0.700217908435462
-0.878030806569094 1.411722511069109 -1.926911987586176
0.681248059226312 -1.537061477549142 1.647855511502961
-0.325634388926742 0.451505102337366 0.812627436757577
-1.157612344785897 0.900542280460483 -3.038036250988390
0.960451641202077 2.909133642950652 1.672730287214466
-0.414996500089700 -2.522086354139956 -1.799921256511743
3.471625002983989 1.956535866313297 1.430453784050064
2.416734902553784 2.026071901240373 0.440414880053354
-1.062359860354706 -0.979437485236889 1.570227609309022
1.000037217741175 2.336803082233064 -1.636564495404700
0.465677954959434 0.062487663216362 0.005322647040791
-1.620357797935390 -1.310580331733818 -0.666645394791052
0.369812585708393 -1.008165033306262 -0.268499742558266
-0.116953933400244 -0.163511845086524 -1.770866579507233
0.028498211713274 3.313882579811380 -0.078148949748236
-0.554278225355086 -2.079816042251765 1.407889337843021
1.093326086805076 -1.229527059273090 -0.300314575007082
0.326950376845371 -1.059841393798565 1.044876629936807
-0.364197554911798 1.846172850102636 -0.291296375335690
-0.648285845160213 -0.558031541253738 -0.421676362546683
1.551093173311225 -1.041552217025148 -0.061579155732347
0.516963487779942 -0.552663117033938 -0.215075144549075
-0.566050695812614 -2.884855148928702 0.782671904884483
4.191058812281155 0.400829459977032 -0.125945793346207
3.500923376914237 -1.349253131023519 -0.048469581791597
1.223880353599858 -0.161453897644272 0.203020480248896
-0.043728721576866 0.029433660150695 0.173925047494568
-2.739362680454831 -3.047740076503163 -0.118888837669572
2.445349900776324 0.213377897128970 1.580723668133442
-0.018225650418028 -0.314772329813615 0.079629006780757
0.494021184044937 0.241094894616806 2.271034472317514
-1.608485460881977 0.284948218178780 0.429344049380676
1.159304756069909 -1.392708879152672 0.058953678613989
0.959966145176112 1.387563123470941 1.717403424462652
0.020380687816273 -1.532023428793809 -0.508684758312595
1.183510987792708 -0.590131843913425 -2.899211664132014
-0.615114335548596 1.282845312857111 3.083098804287334
0.157146065098212 0.417696141037884 2.746393987422574
0.050466582403415 -1.161771744411991 2.944589849125190
2.638299248545643 -0.511058843411325 0.450583178746967
0.607818582863613 2.234398983923909 -2.050574006269218
1.317019665124408 0.213481916872612 -1.396415520650155
2.011794840499541 -1.986827187637299 -2.584854825886096
-1.760331269051221 1.023427898574015 -3.028241122186837
1.578661832003596 -1.636033431227003 1.208735850044012
0.630503398749549 0.289083171444716 -1.386645467474356
1.096359894913196 -0.590997784926886 1.494410625029499
-0.818776676508617 -0.512266884419093 -0.866022682478277
1.312823902504772 0.120617744314099 0.770309748866590
1.764912263387746 -0.138521807684461 1.454935299986603
0.439037719804398 2.329657396430250 0.348620979399543
1.327541866089254 -3.198640702294603 1.326866038956630
-1.286005225740399 -0.561133054991300 0.658009812753500
0.820750876194443 -1.255521168078533 -2.086363674242640
0.868907122233718 -2.323949040984785 1.389387526115819
-3.157054065530969 -1.185272187777916 0.709647207854773
3.216252504433545 -1.058528915235920 -0.346460317814131
1.453852065961324 -0.593191735290845 -0.320458582402674
-0.094108257632822 0.662101758339766 1.483225014596926
0.410517471804509 -1.713760444234587 -0.530607224650307
-0.834345709687797 -0.278957592585751 -1.770105996999221
1.141231353500503 -0.935425872046808 1.860479349035218
-1.069628655624338 0.860680007729661 -1.711325218905608
-0.781715781064306 2.371191313510966 1.542421864196449
-0.434512099354154 -1.782885885488954 0.097658232173641
-2.727319304117161 -0.282964373819207 0.935107758674736
0.372252240305006 1.350252654406770 2.143753484675218
-1.226027976835975 -2.228223908409277 2.821706869163150
-1.362544011757279 2.696105861810794 -0.720228422416588
0.724338500179453 0.349603552812667 0.094210266411995
1.364135954037281 0.660338635779218 0.377760141595209
1.671216195852843 -0.610184123923360 -1.117080032407396
-0.784293892962511 0.352900056860285 -0.640465705727853
2.070287575805384 0.182069535919405 -1.149216551150621
-0.269245153861709 -0.714189853580483 -0.271334582559390
0.375220537854907 0.111340775361810 -1.055783213335134
-1.810011936705369 2.702398804073464 2.880278082667133
3.447077375997886 1.620236988398340 -2.212488569966534
3.508483468740968 1.614325115692283 -0.226400578053603
-0.968884302991905 -0.601867745855023 -0.716372958495115
1.167139218285543 -1.478199389180481 -0.191509650401318
-3.407807456966692 1.368631800347345 -0.911807982233647
0.342072836423242 -0.251694345853701 1.641910633148079
1.390351506424810 -0.480511168563702 1.183764898154362
0.150815652780912 0.345116117652722 0.343998182106838
-0.021097369922566 0.921567538677939 -0.186911169679358
-1.326011002832857 -0.530821712758664 3.278004447850467
-0.670273733460367 -0.149726650627861 -1.182667959745835
-0.701932035451887 -1.590803489383992 0.172709753232340
0.293238134644155 1.355170354629824 -0.353376571192399
4.130726335913699 2.513612829633781 -0.684413715792091
-1.596089476113220 -0.161245570582221 -0.531654937516152
