ply
format ascii 1.0
element vertex 216
property double x
property double y
property double z
end_header
0.750868501634955 0.134664239306710 -0.469604134600927
0.765114081522878 -0.010728820148614 -0.606194181032081
0.736610058897945 0.280055725353135 -0.333009807412364
0.556641764353254 0.205060435363462 -0.564808563592697
0.962863308279642 0.056359450346050 -0.364127041486474
0.542383321164966 0.350451921621610 -0.428214236676600
0.570887481001623 0.059667311744896 -0.701398527452453
0.772983367271915 -0.092337058284000 -0.682805300130989
0.977108741088276 -0.089033541489625 -0.500717175245174
0.948604866027958 0.201750936169345 -0.227532714009750
0.865028172970584 -0.105741458475221 -0.201798865100664
0.578758170223068 -0.021941584835230 -0.778008799198204
0.984976517515183 -0.170641085727064 -0.577329190482944
0.722351573790870 0.425447204018072 -0.196415468093317
0.879273662468328 -0.251134327580367 -0.338389123576629
0.850769730531840 0.039650026943091 -0.065204537212401
0.780336590886621 -0.179177478086486 -0.763876668777614
0.378271633717237 0.269159556361740 -0.651655162754601
0.528124836057866 0.495843400286559 -0.291619897357569
0.934346380920911 0.347142414834269 -0.090938374690686
0.364013189928007 0.414551042890030 -0.515060836188773
0.392517532483326 0.123766350876066 -0.788245020464259
0.586123597101541 -0.108787728646066 -0.859072801345620
0.887142020647146 -0.332740612371255 -0.415002418647049
0.992316620952278 -0.257475474586983 -0.658408348043223
0.400390090710733 0.042156614145092 -0.864854202853242
0.836511245424783 0.185041505607992 0.071389802106686
0.278643102010679 0.304766802808537 -0.699955423078319
0.780910316731673 -0.271144420327579 -0.846541069930463
0.774260478097977 -0.253216801388523 -0.054300451569799
0.894487181911943 -0.419564053893819 -0.496092700625896
0.292905435786911 0.159367723599431 -0.836537313198047
0.264384603988892 0.450158308719050 -0.563361122804096
0.349754704820872 0.559942521554993 -0.378466496869762
0.708093088679018 0.570838682681675 -0.059821128773350
0.586787051356582 -0.200796692877346 -0.941683107793489
0.760002035488873 -0.107825316350061 0.082293876704994
0.788506019223865 -0.398609555379144 -0.190890827184819
0.992794066435611 -0.349398211259083 -0.741129852039308
0.407771773689586 -0.044696835484312 -0.945908731759409
0.300946620405404 0.077697721324402 -0.913064746566504
0.513866350946039 0.641234878950150 -0.155025558037586
0.796374907237729 -0.480214658845992 -0.267505324353398
0.920087895809031 0.492533893497886 0.045655964629264
0.895001786859797 -0.511406495070937 -0.578895792505706
0.250126118878669 0.595549787385118 -0.426766783486581
0.699536670647352 -0.390273639227021 -0.917098363247215
0.745743550381806 0.037566162314818 0.218888216024104
0.309791904166468 -0.009678806162354 -0.993409730746445
0.822252760312913 0.330432984271632 0.207984141426613
0.408555031809178 -0.136759555350961 -1.028449314725478
0.910226356638179 -0.467986102277768 -0.812387979674491
0.803724676456828 -0.567027829624551 -0.348606057542867
0.802343175240657 -0.508649590409150 -0.802902825415760
0.593473774709926 -0.431742041596480 -0.906566443909403
0.335496219709080 0.705334000218570 -0.241872157549759
0.696329702739823 -0.538878199231096 -0.784847417506686
0.506552693505837 -0.320450396073914 -1.011563212931946
0.100848100352080 0.367967065350718 -0.785785239050714
0.690440168984540 -0.388227537245612 0.080655799064638
0.489854627348991 -0.463001586556148 -0.887163770954477
0.596141182373870 -0.566153955635142 -0.766624320870678
0.321194628090953 -0.105536839252756 -1.070802049881462
0.115110645086906 0.222567927833273 -0.922367045085802
0.086589601634182 0.513358571453634 -0.649190939053948
0.676181726138644 -0.242836052703864 0.217250127843418
0.704685781871138 -0.533620140705565 -0.055934729284950
0.812900739962449 -0.629003900695368 -0.651159483261134
0.804273218091497 -0.658794802543478 -0.431485935590825
0.693834562043972 0.716230145328389 0.076773214564197
0.402326075638001 -0.362735953047093 -0.999969830429800
0.235867633769965 0.740941266047590 -0.290172444165082
0.123153994677215 0.140897327147075 -0.998893615511448
0.705746055132793 -0.668173135001391 -0.643188773281236
0.712555406355658 -0.615223699348447 -0.132550793892457
0.392814125289677 -0.491598410746681 -0.867205917430131
0.731485065269946 0.182957640978479 0.355482555344009
0.499607824762271 0.786626341385140 -0.018431214427573
0.905829368688658 0.637925356367729 0.182250307678650
0.072331116523919 0.658750050119713 -0.512596599736449
0.600714224355809 -0.696457748985813 -0.627100090797090
0.661923241031563 -0.097444574039013 0.353844467162556
0.417516868949212 -0.614481841950378 -0.733863973407976
0.301321280477741 -0.395117050971133 -0.979100471909333
0.643458030386939 -0.463486875495357 0.155857834514970
0.132018107445078 0.053515593730328 -1.079231093004236
0.719911582526224 -0.702023434895002 -0.213665158794884
0.807994233379601 0.475824447546457 0.344578484064460
0.250429239703807 -0.376924931177597 -1.003776623345601
0.657711393709567 -0.608867064074061 0.019254900757706
0.629199561966008 -0.318095431920468 0.292452204229348
0.501845293463676 -0.721204135414434 -0.611431517984627
0.321237694126254 0.850725462383418 -0.105277813589477
0.722610703115403 -0.775440989107904 -0.504716330716702
0.218360252848201 -0.296978604460655 -1.089165562475650
0.665660539168483 -0.690343243625858 -0.057488445740552
0.224160293331783 -0.543956134228224 -0.829115422689432
0.143559524911907 -0.042380867023006 -1.156568031992599
0.720507414888395 -0.793691460037428 -0.296645420720171
0.616186565210879 -0.813098849350453 -0.498278073827411
0.614941076857471 -0.172703953257950 0.429046543550818
0.182728061390311 -0.204707037657593 -1.168563472442346
0.058072631415255 0.804141528782175 -0.376002260414934
0.647664755919717 0.047946904624676 0.490438806482432
0.673706921249449 -0.776037386137112 -0.139707560051037
0.221609162419696 0.886332708830215 -0.153578073913195
0.147431311183540 -0.516515529902580 -0.866332697673869
0.238887110159763 -0.662793823705928 -0.701087027362908
0.717226538506994 0.328349104633155 0.492076897595325
-0.091255277988040 0.435691122797711 -0.877923786486882
0.096483144931427 -0.385644683748040 -1.010916118065293
0.327530264898873 -0.761640101373011 -0.586621529969899
0.679563557091024 0.861616113563563 0.213368154902926
0.512230052964523 -0.839264007815001 -0.484333099202606
-0.076992576333671 0.290291944513404 -1.014505532749440
-0.105513777223735 0.581082629035148 -0.741329486687351
0.679310679748710 -0.859683538156437 -0.230703575485763
0.485336956569770 0.932012245457073 0.118163808482553
0.064736383328409 -0.311012279205338 -1.093317938318276
0.891558216656423 0.783311392222552 0.318845160689832
-0.068947616406994 0.208620925456261 -1.091031489763667
0.488233511122493 -0.877710376134380 -0.445915548147156
0.600682591747081 -0.027312474591928 0.565640882868363
0.291361800993125 -0.819614771779685 -0.528688561510952
-0.119772262334027 0.726474107701234 -0.604735147369863
0.793723138036475 0.621210606131810 0.481173212358378
0.559325425877274 -0.597527667338466 0.289749074297599
-0.060069502762942 0.121235553479705 -1.171363632870864
0.029744950683773 -0.230210266467683 -1.179922733877056
0.573578903064379 -0.742907709757692 0.153145996853505
0.545066957080617 -0.452136224245867 0.426343444486108
0.306967008051472 0.996111284588243 0.031317315470748
-0.003866102516094 -0.576069970909890 -0.818736135969831
0.043814160761097 0.949532971372396 -0.239407889885589
0.633406229393557 0.193338368776066 0.627033148229762
0.060257337538048 -0.711105751674894 -0.668310027137844
0.671433402612264 0.943151593338026 0.290029487303613
0.529439914274646 -0.952072668730717 -0.359408971643915
0.581529217046260 -0.824382389326553 0.076401175745312
-0.067989545073651 -0.441034140405546 -0.969162185131352
-0.048425198148867 0.025312295138251 -1.248661308476535
-0.007958130811525 -0.137360303210473 -1.260152462139082
0.477208205563416 1.013547066786795 0.194825988236398
0.883426552855532 0.864847565894962 0.395505596951658
0.207354911355057 1.031712657311608 -0.016974977263040
0.530808471972059 -0.306744745583377 0.562937783807603
0.702955494792012 0.473735378333033 0.628671508750188
0.362141444934779 -0.945087157930562 -0.387712741645133
-0.134030747442662 0.871865586363688 -0.468140808048337
0.589585760659267 -0.910063485172180 -0.005830764762530
0.124380777591563 -0.846141532433515 -0.517883918299859
0.785592055987495 0.702748039250771 0.557832368787553
-0.132113288990256 -0.305984243043239 -1.119569142694314
0.586424090795956 0.118079030526321 0.702235183680094
0.569910781457696 -1.020064430490730 -0.260277985278981
0.298840126051082 1.077645265767118 0.107980584581360
0.595264300302254 -0.993613473500000 -0.096921331080856
0.400283654494077 -1.017632006816882 -0.306163189769572
-0.170847136910162 -0.602596619474908 -0.807931387452035
0.516549986861691 -0.161353266917327 0.699532123125122
0.661815754549495 1.029360421647601 0.371536750725150
-0.168101590786394 -0.230059166824888 -1.203789642881417
0.199396655745753 1.113186372946428 0.059770040868098
0.694824942578078 0.555273992776033 0.705329463081204
0.467602760764415 1.099750171088021 0.276340618157144
0.188504209156614 -0.981177250849046 -0.367457763831635
0.029560120655052 1.094912861545450 -0.102804709150796
0.873795784615152 0.951062425147103 0.477005071459541
0.619135257439284 0.338724793006612 0.763627606650057
-0.118372435084294 -0.759417679637477 -0.635533026906782
-0.241630112148235 -0.477090264630402 -0.948875293953286
-0.331701201031838 0.518844048193228 -0.991531139977328
-0.447430857912817 0.339360434425264 -0.812568684181920
-0.148289217579023 1.017257028819389 -0.331546437321758
-0.207015600815909 -0.660571289881581 -0.749998418993088
-0.317438292345401 0.373444813080945 -1.128112804140825
-0.345959700950692 0.664235554618183 -0.854936840448704
-0.433167837148719 0.193961342446874 -0.949150488998321
-0.461689358201502 0.484751940377911 -0.675974384189174
0.775966345574817 0.788973845840268 0.639320718876868
0.467948794481218 -0.741921283331502 0.433903723010649
-0.279806509408559 -0.404196809257050 -1.030097332323817
0.439953013351861 -1.094056092123264 -0.217622479428772
-0.206359733130081 -0.148289364580593 -1.291765554402543
-0.026916647100577 -0.905695861352012 -0.470287251289118
-0.309391207881320 0.291773210849589 -1.204637918651279
-0.425119602568191 0.112291209047472 -1.025677046882876
0.482202358557991 -0.887301219043610 0.297300541057168
0.453690325397847 -0.596529840591011 0.570498093544014
-0.538807489308872 0.194966818432228 -0.668414035468869
0.289250937352460 1.163841064249775 0.189504687743355
-0.524544381655108 0.049567833160956 -0.804995944794658
-0.553065989884272 0.340358324032767 -0.531819735131268
-0.360218186061023 0.809627033284280 -0.718342501131232
-0.475947843311854 0.630143419043981 -0.539380044871676
-0.103645629248820 -0.878255257026368 -0.507504526273555
0.572160869277714 0.263477869638116 0.838817236692713
0.490153564205260 -0.968774803554057 0.220554647442127
-0.319773246155522 -0.324740409458779 -1.115789203114778
-0.300494627514320 0.204382768890879 -1.284962737591887
-0.416213026069165 0.024913535090003 -1.106014412674904
0.502291486286290 -0.015961761316788 0.836126423462723
-0.516495255409191 -0.032101205180032 -0.881523575186060
0.021604030017564 1.176385978769101 -0.026058828076846
0.611005441696007 0.420264952273579 0.840283993542145
0.191271067829343 1.198859093571732 0.142003688756319
0.439431840289272 -0.451138361928541 0.707092432865529
0.644801012035892 1.116740261513634 0.457367473468602
0.685203840119702 0.641510070109535 0.786807361959897
-0.246578164944864 -0.054716411888469 -1.373027401482805
0.498217859383709 -1.054446377708649 0.138313381165994
-0.567324474994641 0.485749802698817 -0.395225395813750
0.252624621776800 -1.116193179517726 -0.217018892904105
-0.288714882613236 0.108422273294162 -1.362206639717951
0.479311178745316 -1.163487279586698 -0.117075513525350
-0.404360010864033 -0.070953275712539 -1.183350384847772
