ply
format ascii 1.0
element vertex 757
property double x
property double y
property double z
end_header
0.397926763136514 -0.567172222787967 2.159499382404511
0.251164495084203 -0.672615736291872 2.252802068394027
0.389232459905161 -0.362456579577990 2.171505584402853
0.401616166440144 -0.778496604249151 2.145297752253886
0.245789434535897 -0.462429702523703 2.266343851275257
0.552848366225014 -0.463026534267794 2.031253314951812
0.559940720292457 -0.668846649891832 2.018618375362393
0.095098529291698 -0.554033057332509 2.340673489489966
0.249058494238219 -0.899585397164634 2.235473388941680
0.562154581287723 -0.881025570463508 2.003849531570788
0.539240880563453 -0.223951666653418 2.044093263464190
0.685561744970297 -0.536216920926062 1.894394376057202
0.095054005177032 -0.779546741286337 2.324156442065899
0.231858741390137 -0.208844019214572 2.280135071955570
0.087566638715452 -0.345602478919118 2.353349112283232
0.397871351804583 -1.006460542360375 2.127335789774791
0.691579527762996 -0.742684580188358 1.881344514676160
0.675627946855174 -0.333584803111141 1.905824170003327
0.372803676671445 -0.116781845835947 2.183863498665834
-0.062199292489820 -0.647958536748329 2.391635559223027
-0.064782839903706 -0.424699326726397 2.407088751329796
0.663485170885986 -0.151353906061447 1.915005575727135
0.692793017058587 -0.955376457238985 1.866195976081184
0.523438852310713 -0.022255236301680 2.053447464187492
0.808966532770626 -0.596244684405319 1.746116266120749
0.073728803704497 -1.032871951433665 2.298325622748845
0.556956714875595 -1.109766034321245 1.985333756519215
0.799956216195620 -0.393016715924683 1.757905521672473
0.071403434113600 -0.105500103890246 2.365390109281906
0.215153761103597 -0.005606626508890 2.289293192747734
0.225760789311256 -1.152514135688810 2.208996921070892
-0.081005993420448 -0.901425752188718 2.366655757569220
0.814139820311668 -0.803174315708343 1.732743755486936
-0.075774081387430 -0.209700644003584 2.419061780803244
0.354132032864880 0.087737288952473 2.192442747447421
-0.220618831687373 -0.507234623005755 2.436884778297471
0.373010321912556 -1.258916087989894 2.100359239684670
0.646435267063297 0.051050966586300 1.923984802371447
-0.236139141805597 -0.760175099964799 2.413067572561962
-0.015817189609633 -1.154594626772481 2.126217184211220
0.779590871502692 -0.087062449265396 1.773327920372564
-0.168050489422549 -1.032850757342189 2.215630819366656
-0.226637804817541 -0.287791868966391 2.450883676757002
0.686600831378811 -1.184597156363345 1.847304970707812
0.814561501203171 -1.016237642826813 1.717297212135747
0.131742435490721 -1.262676322305476 2.017562650379389
0.503102215476938 0.183174037361952 2.061523830218467
0.914693818073152 -0.439931728723644 1.600513915157214
0.922988414263204 -0.643584627237818 1.588448766055731
0.050824056640875 0.103107295145462 2.373616007426587
-0.093317286794831 -0.003590581232169 2.428143407221301
-0.322697420634915 -0.898753271876695 2.284185013340264
0.192318128568637 0.204466137264021 2.296854605658428
0.902584423968737 -0.231878350785774 1.611596281986169
0.530714721360236 -1.361696865682926 1.957923267742245
-0.389339749745364 -0.611565803854153 2.437618797701346
-0.238578890077503 -0.112998740121431 2.459589813336983
0.927503024645886 -0.850848127257825 1.574826535857659
-0.230941272636093 -1.136763364454190 2.053942566855033
0.289821817308923 -1.366950323344083 1.875145668903141
-0.378270377978988 -0.360914249040440 2.459746147861549
-0.084467900060437 -1.246474342040154 1.944797277788637
0.761579017976876 0.115831153936322 1.782013891585746
0.329567919479856 0.298737854333779 2.199480855173601
0.624996221118670 0.257003169683560 1.931722373782618
-0.381613780197842 -1.012988130223738 2.144038687357518
0.887500408612780 -0.031062454167582 1.621131633901320
-0.477041616460028 -0.754105818763892 2.331115234397894
0.807577321991964 -1.245813464663276 1.698109333430364
0.072747837705290 -1.352202217684662 1.801978515717086
0.927303843266975 -1.064182768115239 1.559147784279732
1.019963858947274 -0.474930573072358 1.435488238599429
0.659417290407473 -1.436116845984641 1.819602527217953
0.477047390831724 0.394853527127993 2.068101746235193
0.418830610069689 -1.442393103714953 1.736854824076479
1.027712281067315 -0.678887584451628 1.423214027001414
-0.533893728595872 -0.876336127010251 2.213589391359555
1.008928806206799 -0.273608318373171 1.446445519381578
-0.538354547012821 -0.458437502022429 2.441474560854022
-0.121570908684021 0.222357653269403 2.435013369534100
-0.284264406929780 -1.223952196686248 1.878108440588622
-0.263125884909179 0.109670093157159 2.467487594159547
0.019832436874651 0.330941860305875 2.379687516760070
-0.429510958067839 -1.112575576127842 1.987795224700481
1.002990759055431 -0.184282097924167 1.450950903516675
0.201214069536439 -1.428644395156103 1.663428967228404
-0.127988176703002 -1.331150623965029 1.734860729819860
0.739281135715415 0.322150066707899 1.789484546886411
0.868748837301815 0.172175148393144 1.629589769589717
-0.403199675381748 -0.004490433169969 2.477300603611263
1.031721887084406 -0.886392290477731 1.409401418848955
0.159228156422730 0.433482504263176 2.302294888060277
-0.533688893008135 -0.215438421529124 2.460851667112094
-0.627681689254913 -0.601035144322358 2.356868704032061
-0.578330651904854 -0.986695510231793 2.078679087248918
0.597941646381648 0.469080306018294 1.937987440398165
0.987276064501937 0.016856953869633 1.460294189378204
-0.540846878698054 -0.115590522203185 2.465709709811605
-0.000096026818667 -1.408595651186356 1.596041443814297
0.919695715372135 -1.294022240559220 1.539727202438971
-0.684320482587127 -0.728426152066234 2.262098237423499
0.294837277229573 0.528536535380715 2.204417220553238
0.539330163169319 -1.504068583903098 1.587462459104498
0.779646099381654 -1.496977551486061 1.670177179593827
1.031044821279934 -1.099924439251013 1.393544762794718
0.321307404280781 -1.491118331872416 1.513839235870752
-0.477360646993413 -1.196769633020130 1.814052334901471
-0.322271768536086 -1.305548989095817 1.670282827898244
-0.680506728639550 -0.304661209252820 2.427180474434512
1.115997469176394 -0.498746326574005 1.264494819961764
1.105405527107868 -0.297149787509340 1.275623729536784
-0.736525128209113 -0.845839125893688 2.146514483902699
1.123341247980438 -0.702917981683187 1.252066500818465
0.845785461123142 0.378755061781383 1.636851902954434
-0.305451737261045 0.326569266069726 2.468882238317353
0.119575644060253 -1.471866409018133 1.446249182876197
-0.166558835023980 0.439947601383703 2.435548045141894
-0.441765505253627 0.210411703398894 2.479835165468852
-0.195087704030091 -1.384062726482007 1.531143151565713
-0.768884317971228 -0.441872963408703 2.363838007239127
0.967963259714235 0.220337996281960 1.468578178582662
0.440880706912320 0.625244066394806 2.072590247666751
1.095250967073318 -0.144329376571111 1.283333076148456
0.711441128396422 0.534509242177194 1.795501608135497
-0.668424381230880 -1.075592156278021 1.908785328817354
-0.027143560884311 0.548694475059906 2.379554110536453
-0.573556117359250 0.093483948879517 2.469820980001084
1.126975433674976 -0.910594067237610 1.238112946161705
0.651090207778487 -1.552622360301531 1.428932516029637
-0.848793740721835 -0.700483467664271 2.207887740564384
-0.698560473591172 -0.021598578527774 2.441718434432787
0.110721682464148 0.651171044735525 2.301633320779762
1.022954735110687 -1.329958272420796 1.373945113382918
0.432762689457908 -1.540302571980160 1.355158921416663
1.079073294705740 0.057033958159864 1.292534420352222
-0.075928071894453 -1.448177516221629 1.381113995290554
-0.804278412297550 -0.948563346959229 2.004187926807506
0.891176996520935 -1.544889583115905 1.511615819918221
-0.862807412950759 -0.425558227094790 2.332907085069172
0.560801772540548 0.699826157062515 1.942169079046413
0.230719185372470 -1.521677202524610 1.287416394274935
-0.547472118366664 -1.270185283255177 1.595844726001006
-0.386101437219737 -1.355765428949487 1.467880900656393
1.125942087101526 -1.124267306763105 1.222124106312502
-0.824775209845407 -0.141607009646524 2.396361966532464
0.245132386131259 0.746067643138386 2.203334235732974
-0.708561932853607 -1.157867259957247 1.737820658090812
0.944492147293402 0.427104022222769 1.475680268363270
-0.368642771449131 0.506293267937968 2.371283590867817
0.817333079131582 0.591316486886348 1.642674311705585
-0.507116534857611 0.390064770200383 2.404552584305192
1.203100502949208 -0.512217761162943 1.089127000552654
1.192819168215742 -0.310436195585201 1.100375687099012
-0.229206025968131 0.617137496798099 2.315450472773193
-0.930160653080700 -0.809262053369182 2.082961362474700
-0.641871078292831 0.269791351615025 2.415737641680810
1.210159820508335 -0.716535084485378 1.076590727266501
-0.963010864813671 -0.543449004485593 2.246389086802838
1.059346442035866 0.260685248048840 1.300689249511375
0.034841148116711 -1.498648960921348 1.222104833946668
-0.267587598874279 -1.420795188825093 1.317563909623970
-0.859413516251180 -1.040146942098776 1.846054535481015
-0.091144988127054 0.721211960376232 2.237713575936894
1.179611894254876 -0.111614683494308 1.110407007591276
-0.768659989417220 0.146212885508600 2.406947538510810
-0.946970546684145 -0.260755531125413 2.339253982397454
0.754082555360364 -1.588815130948048 1.263040429757825
0.535528429979196 -1.576983153618487 1.189153632930379
0.673531356392103 0.765511450717020 1.799438675454555
0.390126849273534 0.842564523161036 2.071133068042173
1.213529452198752 -0.924328010603804 1.062538136833115
0.043520604058074 0.817350296991636 2.139592534418933
0.993983199481687 -1.580586836335524 1.345696325322001
-0.557600386539381 -1.326954787051251 1.411330901942786
1.117491748860586 -1.354441311613237 1.202390982043991
0.333255698129624 -1.558841048948138 1.121297339874375
1.163110846661050 0.089899010639794 1.119508749439754
-1.000010845592073 -0.908584661513679 1.940166505575659
-1.057491943777995 -0.655106324806211 2.139826634505158
-0.737081692703985 -1.235822176156015 1.533506604640021
-0.157283970394553 -1.471979012274585 1.158343373029956
-0.862583084396750 0.162527621822513 2.376016616340855
-1.057911285008728 -0.372829290465706 2.270033643578898
0.915570438095221 0.639810379449745 1.481352757313780
1.035499242025660 0.467582103828454 1.307672278536811
0.137104657164918 -1.536320629097139 1.055855243899673
-0.900591240540153 -1.120248324048705 1.674893152679950
1.212244527907866 -1.138097800538634 1.046456184236903
-0.580119300637111 0.555843534313432 2.302577572855275
-0.965024291635768 0.022307099599633 2.353791942395728
-0.442227171002655 0.669723023125580 2.246438249274765
0.509337504979350 0.916967181499483 1.940455786358939
0.188807158816586 0.914927630598522 2.007570333023381
-0.715814737913771 0.435441913058442 2.336491478245966
-0.305100037311774 0.776100361800695 2.168550438355150
0.778819947176210 0.822504965988967 1.646418640595253
1.281598232839180 -0.516320430592603 0.911165613819118
1.271514742428927 -0.314424023237668 0.922490373009252
1.143093791807800 0.293665023593027 1.127572714833243
-1.090620523669924 -0.163754819383005 2.274144913768377
1.288476014183789 -0.720728521690442 0.898560607390497
-0.171030444133385 0.874026770213825 2.070356386864129
-1.141637182268680 -0.759711786993718 2.014255344462157
0.629707174972658 -1.602017777505407 1.017436600210220
-0.555525505563344 -1.372446572890720 1.222617692417077
0.848425846167691 -1.613484677024114 1.091406391372818
-1.056334444822473 -0.997674905517490 1.781809059710928
-1.163116437852876 -0.484069356269462 2.182291563014796
-0.055356671896451 -1.510196083927908 0.991938878529769
-0.353239515891723 -1.440923631102486 1.093592683144609
1.256320203415432 -0.085642681729405 0.934034275689095
-0.747770681541722 -1.291221678843349 1.348901244891281
0.427269377559684 -1.584236508589075 0.949497445457658
-1.097778509359843 -0.063906920057066 2.279002956467888
0.308250453183059 0.990058777218452 1.877025927963150
1.088182326638581 -1.604886142285339 1.174040070379281
1.291676543951517 -0.928594470138657 0.884444835257004
1.203539337421293 -1.368368394535250 1.026628824392047
0.621505538897533 0.982490458886249 1.797521459054043
-0.026177593926321 0.973160962724954 1.938299766604420
-0.929825900991436 -1.196378399297050 1.470468111616421
1.006228751278536 0.680390669377381 1.313232951921874
0.230922898123839 -1.562094303868955 0.883960827542854
-1.201682267724754 -0.269167219700599 2.184826124872385
1.239613665782859 0.115963928061413 0.943072532327850
-0.637959604297179 0.709701708571129 2.182416828042918
1.118982251856902 0.500650343675096 1.134471804350197
-0.880287996048479 0.463384597460405 2.282280981386852
-0.977200253851590 0.327377491451790 2.305258024451588
-0.773754825508698 0.592420606837939 2.239024451427275
-0.502020965883067 0.818572398381980 2.104304962585063
0.876593123289929 0.871133696574716 1.484948187310278
-1.259156741374560 -0.591610820675555 2.075496980492997
-1.213031990626597 -0.855999135186198 1.871154282077231
-0.245032753610219 -1.480860591143038 0.929210117047739
1.290230594438625 -1.142424748904834 0.868303380584768
-1.098238191189741 -1.075883368052102 1.610537866989283
-1.093112855355158 0.179092160436240 2.298380062725960
0.420621490940608 1.056156112958402 1.734203040901274
-0.368677394782973 0.918391726210427 2.006001101173463
0.093015140709226 1.049343133788562 1.807746570033110
-0.542078622114499 -1.407390556443296 1.031457349759672
0.038222579868798 -1.536374772569394 0.819933083493805
-0.746073698969181 -1.335662438376340 1.160135690037772
-0.329099617811432 -1.466752937972930 0.901488843352479
1.219411780097101 0.319801069884183 0.951078484395572
-1.301482593726426 -0.374711647762988 2.076891624650803
0.715506587683274 -1.616332561893416 0.841561188568900
1.351573990898713 -0.512334291266147 0.733650866740337
0.726354417253089 1.039345046068382 1.644340862319634
1.341593181297059 -0.310379186834583 0.745015041215685
0.934339227307323 -1.627540968224361 0.915588875700612
-0.224335873518485 1.019147744042603 1.873888265867798
0.512955147613842 -1.598806358710200 0.773564500073785
1.358357450348023 -0.716788879933956 0.721010196736810
-0.940912773918260 -1.250576690647224 1.285814560480675
1.173991194464777 -1.618680606624932 0.998205966778709
-1.226611565127515 0.087256596169872 2.202380580622099
1.325353901421359 -0.065843134702555 0.757354449474639
-1.343721118693831 -0.693366120439453 1.949990890188081
0.205211380085857 1.116269759710197 1.664924579035296
-1.270289494007193 -0.942786504093028 1.712645922129183
0.316474665333847 -1.576931024279999 0.707962520781521
1.281362081664148 -1.372756141622315 0.848415710316938
-1.326029588558103 -0.152042814484397 2.084789405473367
-0.151752366222147 -1.507479332359749 0.757069900144599
1.089466045175812 0.713528160547443 1.139953502343299
1.361470036637788 -0.924692299982363 0.706861603123397
0.525640752529029 1.113459142028761 1.581113535201231
-0.105431444425990 1.096412505357357 1.743315677301983
0.966905516900769 0.911809804276618 1.316717077617418
-0.693010100903367 0.854017612561225 2.041574169248724
-1.127984180583601 -1.150391617979401 1.406056610879799
-1.388709045033790 -0.475776172325153 1.950525565795875
1.308540862181549 0.135810838587875 0.766359744905645
1.195131567253611 0.526841357555723 0.957923904534616
-0.560706702469518 0.956010662118969 1.943073595762601
-0.976386225121939 0.622917607954501 2.171949543970420
-0.863907364689874 0.747833871843693 2.107925667601506
-1.087566862175578 0.489064264158064 2.213263984412456
-0.518189070020293 -1.432530542101909 0.839318324162846
-0.732887274378387 -1.369801015739328 0.968945197089264
0.123611287225866 -1.551496675982896 0.643858136895319
-1.337970673818065 0.022750314360563 2.093495542053348
0.823789565899182 1.087859947620437 1.482746463319054
1.359940277655961 -1.138553662574144 0.690689208357604
-0.295575386791231 -1.483348315059322 0.709643537513307
-1.215542193361139 0.337908150983585 2.224507930782302
-0.417080081805937 1.058591520901568 1.810849772844198
-1.416962666922980 -0.249827937823581 1.957395528108673
-0.939487240386297 -1.294085233039816 1.097024375647189
0.310107512287008 1.174221401617753 1.511840420921281
-1.415094455710418 -0.787556113448006 1.807050644313971
0.006567047739119 1.164186964870005 1.600488090026448
0.793172548320858 -1.620967692407655 0.663276347296354
-1.312789239381200 -1.019206894829914 1.541301719434480
1.012077182532186 -1.632010345991310 0.737340787760881
1.288243055074018 0.339684306852676 0.774335546902360
0.590549609921079 -1.603604862587953 0.595243249314255
-1.462070453469380 -0.569803498693974 1.806917238090354
0.623213538668150 1.162318161284269 1.419591393275612
-0.298573536802528 1.137057493553481 1.680228992891377
-0.066566298946228 -1.522910338529815 0.580903025675510
1.251661091695091 -1.622982236753236 0.819946875624636
-1.139359359053476 -1.203507319078429 1.221383667749548
1.418533436282696 -0.501143695807701 0.545605096725185
1.408581765727075 -0.299172045657950 0.556980448420947
-1.434505872330381 -0.043717875052166 1.966477154526731
0.393985047159940 -1.581900257344952 0.529600018773985
-1.343989646948233 0.242193068399926 2.107494440512879
1.425290115813500 -0.705611404195837 0.532954307094506
1.165458330477024 0.739762256721113 0.963355045664833
1.049898630701247 0.945012577690372 1.143358887518114
-1.493062073235603 -0.341968933533562 1.812988747423837
1.350986698347892 -1.368916385815548 0.670770149987373
1.392044328977083 -0.050139247034201 0.569546923897161
0.111325714376446 1.222798075453480 1.447405170430462
-0.709178709554623 -1.394331479274384 0.776788869369443
-0.484836359265545 -1.448621035314641 0.647451297386593
-1.472156164598395 -0.872745588452321 1.648726177286316
0.913850214016640 1.128447387730385 1.314422760314464
0.407593588048138 1.223578670753078 1.350325080350526
-0.186846493677997 1.205764170206529 1.537376775635865
1.428377722970628 -0.913525405091731 0.518796395561456
0.201019686048454 -1.556648099576192 0.465447421720650
1.263875211140874 0.546752701687814 0.781153051092256
-0.926489228405813 -1.327503499460764 0.905822147769312
-0.931923524066409 0.891001032411047 1.962564273365596
-0.606689656143258 1.092954628000730 1.748511651483214
-1.060624236396887 0.774126491835639 2.042566067492906
-0.791907988329713 0.994913035181852 1.866841918951942
-1.520662638556977 -0.655057047979972 1.648064610005801
-1.513641450708329 -0.133361534497853 1.821214645568518
-0.253682428044182 -1.491519685044900 0.519200236017401
1.375201084616515 0.151528061324511 0.578542863982970
-1.445497113814105 0.171280807670647 1.978450184000179
-1.342968933326508 -1.092158285852969 1.336786044460838
-1.187582533082896 0.645334752820945 2.101353921989711
0.713380379299317 1.203161538841538 1.251322739610423
-1.553752610702884 -0.426040680980817 1.653504892407650
-1.138131572733034 -1.246168027880008 1.032587886638341
-0.488743831804869 1.172790601761383 1.617799335839871
-1.328469336830008 0.495133545358970 2.131311646248388
1.426824150831271 -1.127395550185217 0.502615213270099
0.862716196005964 -1.617256456889037 0.485593688555675
1.081658009955919 -1.628212748321896 0.559677165190618
0.010715879270178 -1.528258914058543 0.402434712496721
0.660056422467417 -1.599978693914943 0.417541767050603
0.208715974906152 1.272659875597587 1.285893976677181
-0.082276239650981 1.265095591732045 1.384282121110509
1.354876057364125 0.355411765544695 0.586510104817396
1.321206140895897 -1.619097282225502 0.642277408024475
-1.514401021454385 -0.947924240976664 1.477560018120438
-1.576588243237844 -0.215967917207906 1.661066305318343
-1.529804655310180 0.106740840531019 1.833255642567192
0.463448610437076 -1.578362922970800 0.351877243465904
1.125734662939517 0.971287439923806 0.966709970258201
0.497700229343764 1.264792943420689 1.182062976572614
-1.564105912552699 -0.730393133218993 1.476477033300175
-0.675950667723052 -1.409973125237448 0.584912045889698
1.234120318815838 0.759695645298126 0.786557876466546
-0.377394687083834 1.242548304720909 1.474894773256560
-1.448080661227991 0.394540017692579 1.993903376106948
0.996665711975398 1.161585631905307 1.140999097955278
-0.443057240576751 -1.456440315783592 0.456994822825094
-0.902912085390081 -1.351485553487397 0.713660999044748
-1.354594671527310 -1.144222962508320 1.152104309819507
1.480645596272580 -0.484720733562599 0.356284273079386
1.470664786670927 -0.282765629131034 0.367648447554734
-1.598836554802981 -0.500594452172057 1.481413398679812
1.417846393551261 -1.357767136516207 0.482687236698985
0.270430889434045 -1.553205485613720 0.287699806527507
1.487429055721890 -0.689175322230408 0.343643603075860
-1.593293223524385 -0.012730524502223 1.670224426110507
-0.204596485524448 -1.492141133968613 0.331433800846546
1.454425506795226 -0.038229576999007 0.379987855813689
-1.125271026316375 -1.278926825625037 0.841386897278492
-0.985004228393346 1.022095598847970 1.802785813264791
0.014982599070694 1.315505801384574 1.222766106352486
0.796272666504969 1.236480182435153 1.077938542273791
1.330483334112885 0.562488084492243 0.593319679316000
-1.130493209498154 0.915188820737394 1.896416931211045
-0.660242781124514 1.201601243659619 1.561249337126265
-1.623400668188005 -0.289593886790751 1.488451506405992
-1.537336545886426 0.315171418944409 1.845931265360458
-0.831890005973836 1.128318333841370 1.674073549585976
0.298756617744123 1.314248606184425 1.117636700005084
-0.273084891914869 1.302685132436013 1.321769968440101
1.490541642011655 -0.897078742278815 0.329495009462446
-1.274187527172180 0.793989118954090 1.970973935483768
1.437612467555416 0.163424396291423 0.388993151244694
0.080062431985647 -1.524918701504805 0.224657491521886
-1.544288623783456 -1.019795178415484 1.273223309442046
-1.595042481422242 -0.802474721649253 1.271766129817469
0.929552963847593 -1.606143695189452 0.297500263409865
-1.642072311994571 -0.085074752002331 1.497030755187579
-1.429273960297363 0.648007233132968 2.018883177760754
0.580552252097096 1.298373189171729 1.008684150057891
1.148505305591874 -1.617075436713804 0.371589137315431
0.726882771038012 -1.588890107005575 0.229443009201694
-1.353541683587786 -1.186054381128213 0.963309424772363
1.489011883029828 -1.110940104870596 0.313322614696653
-1.631209165341646 -0.572084182382440 1.276254631249026
-1.607223916670145 0.240855158806908 1.684015646790821
-0.634254570464137 -1.417478219242668 0.394450165700825
-0.869774735636519 -1.366721604905326 0.521782835054911
1.194315337466184 0.991241734367615 0.789886518874154
1.072388126116209 1.187818369471041 0.964308237178247
1.388043226498544 -1.607935143568231 0.454187704690343
-0.394041146812026 -1.456838260320183 0.269220851905979
0.530262733782832 -1.567299573732280 0.163772457443557
0.104932549830656 1.357500126516547 1.054507489170297
-0.176007040463636 1.353704864212098 1.160236651559083
1.417314660447885 0.367297864556225 0.396968953241409
-1.657263989986860 -0.360404692616399 1.282832547265752
1.300705249908534 0.775437244718398 0.598717027212786
-1.537292021771761 0.540685102898238 1.862448312784525
-1.101789698532068 -1.302404348642889 0.649229895371403
0.381564752953602 1.348092413667179 0.944262148488130
0.872045002987794 1.262828243993155 0.901273195314635
-0.461923998137645 1.336218207095203 1.259634635055165
-1.658501095228287 0.160599981739712 1.509388669450559
-0.150077263123953 -1.486315407371535 0.148767028245523
-0.665332593772899 1.290896920655282 1.379948556049667
0.337230224285213 -1.542169036670469 0.099587993948921
-1.555681723323600 -1.071131366789350 1.088674451423719
-0.851256514314160 1.229898541192140 1.497987086216945
-1.677600626820635 -0.154975418952767 1.290908913296728
1.533630291134574 -0.462400734120826 0.174299600130040
1.480058303721760 -1.341302828112000 0.293403556326422
-1.607145990884798 -0.853990342352383 1.086961158736245
1.523546800724322 -0.260504326765890 0.185624359320174
-1.184800735262689 1.044617744201876 1.736096976064776
-1.612598977218451 0.451041192575076 1.697557429672051
-1.026173597806920 1.153919968710582 1.609495647664360
1.540508072479184 -0.666808825218664 0.161694593701419
-1.644285864725898 -0.623244491308162 1.091142797384493
1.508352261710827 -0.031722985257627 0.197168262000017
-1.340804266558397 -1.218164566036045 0.772113782998542
1.392946816514741 0.574366259391362 0.403786457431305
-1.345617292524614 0.933020083055685 1.824142313854858
0.656299778164834 1.324888563280590 0.832022560120942
-1.671340439462920 -0.411167354973428 1.097407864000040
-0.086181758626850 1.396148036593740 0.991968237673403
1.543708602246912 -0.874674773666880 0.147578821567926
0.146843525680642 -1.513911322162554 0.036537312727347
-1.693402655073375 0.046721011398971 1.300263114020029
-0.828139076229760 -1.373941927745347 0.331321121108627
-0.585289517449555 -1.417676228424592 0.206673367331889
0.187680247187979 1.391628705164500 0.881133103895932
-0.365096492672498 1.387927260083119 1.098066132369449
-1.667195398459640 0.365315624949689 1.521394871448901
1.491645724078254 0.169883624533191 0.206206518638772
1.140909686634661 1.207750487605037 0.787462944150320
-1.515966820299226 0.794010313045566 1.888279132101579
0.991787801379831 -1.589642899185489 0.108227094894724
-1.068718347236160 -1.317265942141590 0.457356558487381
-1.692779485407548 -0.205215151876168 1.105145435411211
-0.339557374804231 -1.450896765622444 0.086550425378000
1.210729615329786 -1.600599190618347 0.182310571529667
1.260877166011333 1.006989235106331 0.602038199625567
0.789128027841285 -1.572365136211394 0.040175173389652
1.542262652734020 -1.088505052433057 0.131437366895691
-1.554425731544710 -1.112388727056060 0.899991006619594
0.457285343754530 1.374776118946432 0.767603663342062
-1.606451549039281 -0.895409718886832 0.898073790219082
1.450277746269765 -1.591483724521954 0.264910814363524
-1.644361321043599 -0.664407510347005 0.902010857538140
0.940592783093442 1.282820340789470 0.724441259135326
0.592520215810944 -1.550749365267252 -0.025489350195046
-0.449163356873711 1.402034913253228 1.070344858674190
-1.610492976372466 0.678010853447838 1.714886109124398
-0.657879543634815 1.367273588267301 1.194883945169817
1.471443838392496 0.373720766355961 0.214212470706495
1.363191924189705 0.787309203001674 0.409191282805595
-0.856992120752725 1.318279248051818 1.316398470383083
-1.709829389230237 -0.002810279228421 1.114124662055522
-1.672201328362592 -0.452048334877710 0.908027918787226
-1.707010140734936 0.285795879013347 1.313103062532408
-1.317409649152079 -1.241143839174079 0.579963582446317
-0.087528223991273 -1.474598643987017 -0.040748741648093
-1.046248191525584 1.254431465896488 1.433088793968361
-0.003517082699406 1.430590801705424 0.818588446771662
-0.275442731101165 1.430875316338421 0.929775997546688
0.399502494807912 -1.525591927910171 -0.089666787133443
-1.670884801763270 0.576640006410874 1.535596501599526
0.724834939327516 1.344967701971794 0.655192677088820
-1.694499210624054 -0.245729422106133 0.915498574087890
1.533394139959543 -1.318836445150538 0.111549696627860
-1.226909612215212 1.174971562430215 1.542377861767133
0.263363675331080 1.418493989593658 0.704475194853927
-0.779211185873005 -1.373958357777366 0.143544898843755
-1.721972165199425 0.179420617821273 1.123306067779331
1.579781042402285 -0.431630789443930 -0.012173720547364
-1.401011070813846 1.060819724467198 1.663331603474023
-0.530831677906008 -1.411631025372368 0.024001659852790
1.569499707668819 -0.229849223866189 -0.000925034001007
1.447163625549006 0.580761054027501 0.221057890845538
-1.027126575373253 -1.324222703249897 0.266899119538866
1.586840359961412 -0.635948112766365 -0.024709993833517
-1.541517931282456 -1.144050470075666 0.708886455880140
-1.593983461205578 -0.927210389996250 0.706808677604521
-1.632496593160950 -0.696021910893631 0.710553006494189
0.209134037359515 -1.497305143801257 -0.152709102139065
1.556292433707954 -0.031027711775296 0.009106286491258
-1.712511064149870 -0.042835818904416 0.924184545301072
-1.714102494802378 0.491615994637385 1.325738002121826
1.207454721550635 1.223491656036811 0.599608417573792
0.525806837921245 1.394942758103809 0.590775508544692
-1.660948975152510 -0.483460485788666 0.716375415245339
1.590209991651830 -0.843741038884792 -0.038762584266903
-0.277018297224614 -1.439147177662235 -0.102966349772407
-1.587195271445504 0.930939591972014 1.741362576995186
-0.419265751670249 1.455006333638848 0.882349634915396
-0.638839438587478 1.431370406038098 1.007616097192160
1.045204606616253 -1.567047995935877 -0.073589666392724
1.323386942840051 1.018855292071163 0.412519925213203
1.539791386114127 0.170485982358806 0.018208028339736
1.264109240827581 -1.578090649519533 0.000474774071803
-1.284398497191713 -1.255634537562439 0.388096795449572
-0.192891895231975 1.465670170966732 0.756383033579356
0.842581668216474 -1.549685166116175 -0.141622764374823
-0.850004662146078 1.393943536914064 1.131122484253106
-1.683912351331183 -0.276880572400428 0.723637548610056
1.007145297255930 1.298578545640492 0.536590537332523
-1.731905963314547 0.382052735636194 1.134735861725456
0.072115304693551 1.457656021489250 0.641927710279837
-1.667139987127709 0.804603944522097 1.553558464078621
1.503693149990486 -1.569062540281459 0.083080861935559
1.588925067360943 -1.057510828819622 -0.054844536863116
-1.052495836707430 1.341968140848322 1.251263282797440
0.646017105455335 -1.527980560873174 -0.207265994915093
1.417490388772419 0.793681953192891 0.226489031975755
-0.021005657750085 -1.458701849667987 -0.228599565415427
0.331866288709060 1.438754925309664 0.527647482304899
-1.702663922642148 -0.073642969839702 0.732095684298454
1.519774331260877 0.374251995312039 0.026271993733224
-1.732876408842798 0.263118447754872 0.939606944001164
-1.570789233773858 -0.949959374464526 0.514606788411650
-1.517985676383111 -1.166685625510247 0.516808512402875
-1.247558287880689 1.274480209866236 1.365701270554254
0.791383904584432 1.360750633422251 0.467342550798298
-0.724772227118193 -1.367818858166513 -0.039126366387003
-1.609766548579150 -0.718636057339555 0.518202218408149
-1.716316355797645 0.703794915209060 1.340506845913432
0.453051744343849 -1.502728403104415 -0.271418591968428
-0.978225620283309 -1.324070802111524 0.079126002064874
-1.638688257777331 -0.505929700112580 0.523874707358659
-0.468299890574349 -1.399852013936123 -0.165515455754765
1.580219876874370 -1.287781422816238 -0.074671896707972
-1.737923746107246 0.588520394898490 1.147785723106497
-1.443983591818845 1.189719668089636 1.469210708581078
-1.662159370198165 -0.299163674171771 0.530976797139267
-1.717747937998104 0.127172926778490 0.741631036213605
-0.117329356594027 1.492958895137680 0.579714761339271
-0.380008024329929 1.497060824451647 0.694680243921246
-0.609240697761194 1.483901773848493 0.819486451566190
-1.242846989781127 -1.262329696513321 0.197644727322966
0.592351963575463 1.410750537586475 0.402925887224377
1.495662791309979 0.581237315394108 0.033171083250179
0.262747937565573 -1.474339217586765 -0.334431301192357
1.269981292008528 1.235364045308585 0.410096350489370
1.617121803245710 -0.391535870212260 -0.200642166601493
-0.831300767648847 1.457494951207329 0.943699731822256
-1.741886725417803 0.466346416235507 0.951396199552887
-0.210485769430364 -1.423283207918896 -0.290816168282951
0.140591985607284 1.478020665559740 0.465098716779689
1.606529861177184 -0.189939331147595 -0.189513257026473
1.624465582049754 -0.595707525321442 -0.213070485744792
-1.642278957235682 1.057059490151616 1.580535014168743
-1.681472174985867 -0.095682631759444 0.539260786343725
1.596375301142634 -0.037118920209366 -0.181803910414801
-1.045882699401838 1.416971778517327 1.065810923924838
1.377766721234912 1.025207136395584 0.229843956569123
1.069664388467310 1.310433898493019 0.347074665474375
1.628099767744292 -0.803383610875865 -0.227024040401552
1.092187127136351 -1.535745590174404 -0.259739532531118
-1.537923634793164 -0.964282802997519 0.322702457442577
-1.484868331909035 -1.180920386451286 0.324996774745532
-1.577246869170931 -0.732863668098282 0.326186583138121
1.311019766760400 -1.546953996505349 -0.185711845399406
-1.729857332102520 0.335226304716361 0.752713403042560
0.889635687066920 -1.518219386991188 -0.327736221026233
-1.711118489385516 0.932535379066798 1.359022620965004
-1.606517359918056 -0.520055102549355 0.331747256523184
1.580197628775056 0.164244414521609 -0.172602566211035
1.550671733917854 -1.538093634905920 -0.103094754321309
0.398406106751269 1.454589471576967 0.339798004251504
-1.254227596927958 1.361220063702605 1.183673229802884
-0.923800328524464 -1.317843802034498 -0.103543534931131
-1.739137235402838 0.801212271949118 1.162934261701473
-1.697186869539360 0.105456420034356 0.548604072205254
-0.662245747398543 -1.356013079945631 -0.228643338727639
0.047435572770947 -1.438221437496835 -0.405432212842532
0.693155204786924 -1.496344052560987 -0.393338200318497
1.627066421170842 -1.017056850401360 -0.243012880250755
1.466146584628889 0.794115132266455 0.038652781243280
-1.630364559928262 -0.313158246769741 0.338730285548620
0.853906544701384 1.372581259675342 0.277826083427869
-1.747060012958845 0.673276047538532 0.964768710186701
-1.703124916690729 0.194782640483360 0.553109456340351
-0.048888126072995 1.513439307308831 0.402882113912166
-0.401760072532140 -1.384017467668820 -0.353364933808161
1.560470776105181 0.367895704410585 -0.164447737051882
-1.193970845106269 -1.262010482824088 0.009875366871181
-0.570185610502023 1.525647161904728 0.631725132701438
-0.332641721388654 1.529076675227609 0.508713849689095
-1.465174828413939 1.288228918425085 1.292275413706178
0.500291826678943 -1.470909704263884 -0.457442584204700
-1.650091412598136 -0.109506956880765 0.346885114707774
-0.801941016016234 1.509621305148054 0.755458707517142
-1.738151928292571 0.538879203230535 0.764778552144043
0.654878443295113 1.422556315807357 0.213408914883741
1.618616082929902 -1.247230855251492 -0.262746004519266
0.207124513401534 1.493884635303079 0.277248898269146
-1.496472953977404 -0.970862091768540 0.132224382078643
1.324420184411604 1.241738065942819 0.227442223489169
-1.027451808613554 1.480015371058327 0.878257635847554
-1.536040368451969 -0.739377674625611 0.135629767253458
-1.443240035251556 -1.187435145983475 0.134584171641479
-0.142009088516631 -1.402918563848406 -0.467645161783099
-1.565556575133059 -0.526499857753264 0.141111465246560
-1.714159969431203 0.396104895182548 0.564066737122500
-1.666269084965714 0.091856377850210 0.356086458911540
0.310114240506849 -1.442323366810802 -0.520397695424508
1.536623576094976 0.574792560190199 -0.157464708026446
-1.684876495870158 1.184466210428479 1.386433109741974
-1.732945049723061 1.030432971073477 1.181825267074845
1.124077061283189 1.316747940464932 0.164407181625557
-1.589668115083958 -0.319514537671195 0.148010554763514
-1.247926203487276 1.435597147972876 0.998068396783110
1.426579170154324 1.025599549409384 0.042058166418095
1.644266185608123 -0.341367437541704 -0.389784188625761
-1.747481693850349 0.886339374657002 0.980215253537889
1.652014607728164 -0.545324448920973 -0.402058400223776
-0.861277688407512 -1.306013175781406 -0.293060002301559
1.633231132867648 -0.140045182842516 -0.378826907843612
0.460937894082928 1.466368483013212 0.150280888643948
-1.676423645000264 0.244676788788439 0.363795805523211
1.130831509041974 -1.494807321143662 -0.447700386353036
1.627293085716280 -0.050718962393512 -0.374321523708515
1.349550180237006 -1.506274220662369 -0.373730595190439
-1.742666538675254 0.746142703250541 0.778400782342114
-0.595700621744325 -1.340205300462965 -0.416492960047954
-1.609685169937207 -0.115748524717962 0.156074520157002
1.656024213745255 -0.752829154947077 -0.415871008376236
0.928393711629000 -1.477026052227330 -0.515639541105599
-1.139558172290390 -1.255696440852175 -0.172792116977636
1.589306660707897 -1.497675685923594 -0.291096916183976
-0.522945528166929 1.557465860745259 0.445701140465166
0.122998111408895 -1.410932713325888 -0.582100485082618
-0.279027821182595 1.552042601442101 0.326991650635803
0.908331836460229 1.378808259752368 0.095156546431864
0.017634440168192 1.529336101627861 0.215031290144832
1.611578391162786 0.150420089400288 -0.364978237846986
-1.721908391551244 0.600061906561818 0.576340948720515
-1.472250355816497 1.374170315733287 1.110050006569139
-0.763048988610005 1.551081510201831 0.567620748815236
-0.333257459154160 -1.363756531952814 -0.530192646357189
1.507353085347851 0.787601125739126 -0.151904034641383
0.732047232193154 -1.454883847507210 -0.581176159020403
1.655347147940783 -0.966361303720359 -0.431727664430473
-1.447660505057992 -0.970469678754740 -0.055561408072384
-1.487384172595499 -0.738944495552047 -0.052206483479017
-1.394313968234684 -1.187000608301975 -0.053159674992431
-1.626186217531034 0.085765169416140 0.165176262005480
-0.998287495452080 1.531763509868174 0.689922089602337
-1.517057409372086 -0.526023596386657 -0.046775342348800
-1.687015587068790 0.446273327853104 0.374924715098232
0.269663590981151 1.505634223263288 0.087732123118738
1.592265586375085 0.353901131812615 -0.356694248642529
0.709317402049925 1.428695815418210 0.030737649652984
0.539346913938114 -1.429164316207649 -0.645203903069451
-1.541337622215576 -0.318983308715117 -0.039929922209756
1.373346251428475 1.242172603624319 0.039698376855259
-0.066376701123674 -1.375853344064580 -0.644305898274924
-1.229724540463126 1.498157475728677 0.810401342791550
-1.705761508751724 1.281952660694773 1.209527710564704
-1.740497514639141 1.115915196493465 0.999403132243273
1.647257061771536 -1.196395136890142 -0.451327313842273
-1.742467357296343 0.959477344107956 0.794079533920041
-1.639393491491899 0.284586681507033 0.175207582497745
-1.561539507901334 -0.115146166892347 -0.031923970142033
-1.725917997568336 0.807566612587921 0.590153556872974
1.172953205958046 1.317067154154165 -0.023362178826228
-0.794728723150596 -1.290230244330950 -0.480910128592081
0.349371967847169 -1.400268875998004 -0.708067086418658
1.568794473954251 0.560667157753423 -0.349592158861920
-0.469396278630993 1.580329385551015 0.263949335630182
0.515395733626475 1.472413686065436 -0.032390818835151
1.468029850970084 1.019020260638363 -0.148419908945839
-1.077039081079010 -1.243841087999648 -0.362307988835785
-0.527179127577610 -1.320038661305588 -0.593321114845323
-1.694359365872834 0.650444982962286 0.387353034241530
-0.715910889278415 1.582718018514018 0.381548543411831
-0.216737309503722 1.568648779803399 0.137745235769392
-1.466253721807855 1.447916936294247 0.924294802170136
-1.578246045533907 0.086460442898471 -0.022885713503279
0.080183479300872 1.541052865012380 0.025515520251215
-1.433085708012785 -0.732571745360830 -0.234908734308857
-1.393280726663131 -0.964117834430319 -0.238237376716465
-1.339875075831609 -1.180626587667741 -0.235813801992631
1.378384882021213 -1.455251995417393 -0.562231997467366
1.159830756640045 -1.443420018087833 -0.636118794294811
-0.959529470890000 1.572956844632032 0.502018769522972
1.659963548279439 -0.280488847075517 -0.578430854545821
-1.462840600337822 -0.519628801750518 -0.229503908934567
0.957232791550173 1.378960160890741 -0.092616571042128
1.668258144469491 -0.484141745589691 -0.590496003647304
0.205548947278085 -1.376137858697577 -0.755493449049950
-1.649674826225366 0.486368247084774 0.186456269044103
1.618285526142536 -1.447023700804870 -0.479576101903189
-0.257574031011059 -1.336891247523655 -0.706850555399194
1.647854154175024 -0.072435469137646 -0.567348487716866
0.957558024790474 -1.425277913417483 -0.703975087350816
1.672772754852174 -0.691405245609697 -0.604118233845376
-1.487208444270965 -0.312560406915381 -0.222686404744671
1.539872764756070 0.773373514980399 -0.343919669911410
1.632770138819067 0.128380427480546 -0.557813135801716
-1.200725292865054 1.549544778784506 0.621982934849775
0.761406983825767 -1.402757493566485 -0.769417183325517
0.324147362988946 1.511575717961028 -0.094938303409241
-1.725240931763863 1.021098761361203 0.606010212927211
-1.734859229401503 1.189316816551936 0.813500115760802
-1.593440584547402 0.315241784406734 -0.011341810823435
1.672573573473263 -0.904739886467111 -0.619796985423303
-1.712566292028831 1.367079283316250 1.027335286079810
-1.507506251378496 -0.108686938650579 -0.214710602747956
0.758245292406679 1.428679385386191 -0.157038572611888
-1.697993551567372 0.858121068516710 0.401306588898290
0.016287974803770 -1.341410578952896 -0.817685689176664
1.414974548085955 1.235657844092130 -0.150714226248793
1.614018567508103 0.331618030041272 -0.549355000113318
0.568945654764398 -1.376632948397253 -0.833333548695422
-1.656734143784492 0.690685570407209 0.198992542330255
-0.407124008108293 1.596906494311313 0.074694554547817
-0.662413999634024 1.605486822908096 0.199771898691785
-0.726193561987914 -1.270151105639746 -0.657740011624204
-1.524319290618306 0.092967034639851 -0.205705307316950
-1.448278665844293 1.509989453058238 0.736514545964104
1.664965445578422 -1.134579358911092 -0.639217567264064
-1.010486566916522 -1.228082883148626 -0.550158710638587
-0.149956215808728 1.579656159145649 -0.050374943025147
1.214504713368632 1.310371995203283 -0.213814246952834
-1.370599033731614 -0.720699787077554 -0.424434478716048
-1.330770949834413 -0.952251777465487 -0.427755651128829
-0.451458536776682 -1.293354956026335 -0.769979599991392
-0.912475452039554 1.604422623757020 0.315905312871561
-1.603524074957655 0.517138191761670 -0.000017051633301
0.564360786641056 1.472215676883512 -0.220167617204086
-1.277348505373715 -1.168754198395967 -0.425325869077054
-1.400377117935965 -0.507750626851399 -0.419037130819261
0.134702701701368 1.546878591609457 -0.157151252349807
1.500895449950778 1.004696832105370 -0.340324239914912
1.591055191329430 0.538197943429510 -0.542092866748601
0.379269573050631 -1.347297455612384 -0.896062310177451
-1.424769841187206 -0.300674307903851 -0.412227556320658
