ply
format ascii 1.0
element vertex 871
property double x
property double y
property double z
end_header
3.079980152760319 -6.715355339532254 1.031566957585805
3.419477413221032 -6.711268935623023 1.135829931158657
3.672193249761359 -6.676501366671229 0.995091330852544
-5.794040280827403 -6.484416862490909 1.006734129369822
3.821852696840199 -6.540539517567449 1.012525928368464
-5.861335562175483 -6.224099306406689 0.979946115964329
3.990782983184252 -6.183373431446498 0.988199711832062
-5.847204418763159 -5.905294062578434 0.983281699885372
4.135197972270628 -5.904825251264191 0.993586613987573
4.228970294177806 -5.812555930264883 1.155817754499332
-5.854945219588653 -5.694879497544559 1.013488698644121
4.261360582078658 -5.565791121708006 1.021364764225939
-5.849256170917814 -5.253005277878044 1.022782263133420
4.164284155187604 -5.164137634733642 1.088907380080335
4.238119461863221 -5.333168008713444 1.032469511573759
-5.841187148918508 -4.942796683272252 1.080802106021812
3.790797453149567 -4.823215538169568 0.979140444519837
4.044780879034756 -5.046427987395405 1.064023793064352
-5.836726015480931 -4.635298827518919 1.150709764405527
3.407388199588230 -4.607760615420052 1.035713183309840
3.714213340986948 -4.774101532360179 1.027085706030489
-5.858386798377076 -4.396331643608325 1.103628556328099
3.166653767238001 -4.465496618007350 1.030789836117221
-5.899567145561710 -4.063653636115170 0.985355700311408
2.599949094432071 -4.030301157813820 1.092645137009158
2.814068043987695 -4.139054140240299 1.003782132866024
-5.875250909189596 -3.742358538533037 1.105871331983045
2.498174779360218 -3.762736327917698 1.116382634304868
2.789527135577191 -3.756559089451559 0.951644421297285
-5.898552127350867 -3.426691306875445 1.016088551165280
2.604486132344457 -3.470006087733909 1.077578098759638
2.757568440472765 -3.510950007587825 0.964676346258940
-5.903738223078244 -3.194641777196524 1.029956679773641
2.673354472986886 -3.210767572811687 1.062546373723843
2.821542555884183 -3.126786186545780 0.977345316708217
-5.924123615927993 -2.915097040134948 0.936240570254262
2.777102659429371 -2.886885817826793 1.060021490776727
2.984594061955841 -2.753986892977764 0.923189000542346
-5.926367732790788 -2.603622897581535 0.924229225571295
3.045134448589484 -2.529071780387326 0.935165789399550
-5.891434988175266 -2.311819422159743 1.110669503063677
2.837096306628002 -2.415136962540755 1.163348439336328
3.110535727494355 -2.234587506605944 0.950297217460020
-5.876734521754586 -1.960528132134929 1.006680845943282
3.084981378764596 -1.979296205831305 1.057435306741443
-5.831381519161830 -1.616208637746878 0.975158418139108
3.302518309739955 -1.538095666978002 0.996175756569583
-5.804048452692960 -1.359411574754092 1.001528832674190
3.351915270958243 -1.316014368783834 0.985659188034587
-5.760101193715359 -1.112456945839258 0.930378624112740
3.409441924107368 -1.058208895001228 1.032787969543373
-5.663821089261142 -0.765654027605548 1.088894835842216
3.526823369995441 -0.684854459725499 1.036761100560278
-5.580826555841244 -0.436031725513133 1.030599512806321
3.591483710458190 -0.411999766034123 1.047731155137474
-5.500139846656978 -0.154053662663796 1.079903220631798
3.608707304421595 -0.200161311631840 1.074416063189557
-5.414804944987458 0.035417705120563 0.952617901512091
3.670591699662038 0.070147848456272 1.025656846303579
-5.245472168084944 0.464133492367410 0.949269536669190
3.726225040695523 0.406700053163806 0.982113310612241
-5.176653176001909 0.588250562968910 1.029464140914655
-5.082348315684006 0.802450411026218 0.961224905648097
3.643491825846131 0.716547054188716 1.094887845603711
-4.923755063397778 1.079713457681575 1.007313619917092
3.659540225878935 1.070139600475431 0.974976053318902
-4.711752350481254 1.371272083776303 1.066010121889067
3.518461570212106 1.338692448884971 1.115006259196883
3.619947888511439 1.427239858931723 0.893633355430848
-4.541511832272191 1.627146671899845 1.047736066325040
3.455843337041684 1.633305419448944 1.037331390027230
-4.371197587078710 1.812633646466094 1.091260016437049
-4.202276344025817 2.029016191956159 1.009390874744527
3.345401024434517 1.958988692706386 1.009657854001103
-3.898027860141924 2.282170751390521 1.170392739091529
3.205056680065143 2.191590464717229 1.020895597886091
-3.500093503086194 2.629671709138823 0.996952789281765
2.931957373730441 2.557229128472767 1.069639114750774
3.049181562998190 2.520503198824643 0.960560593566184
-2.999337221397034 2.936375845976437 1.127609313225099
2.619507739150449 2.877059942661855 1.150117463350932
2.832482038811874 2.787811712066589 0.965361308997001
-2.569836669769226 3.191327308350454 1.025766351979740
2.551176157778742 3.154561862379890 0.997773391525403
2.750042725994269 3.046546208968528 0.937217600725139
-2.259250147586960 3.426444825625524 0.993749680630133
-2.042069960993516 3.511251947918054 1.096549779641715
2.325414644417212 3.416345476985191 1.090264623252825
2.522800637509055 3.457600182310878 0.958276122126044
2.835474786338280 3.542873782892230 1.094733705319274
3.043338551555716 3.563370949637297 0.999835242186216
-1.898029445028104 3.616936858218477 0.947548254183858
-1.664694080874241 3.732586832082851 1.015214487223697
-1.386558443178410 3.650687462235685 1.082901325100142
3.213782262753937 3.637395327172364 1.087468875491098
3.503163280116276 3.783477989877392 0.991949176716463
3.679693017785066 3.868414158342794 0.907433437464506
-1.923384091853841 4.016612320022605 1.011418682394343
-1.803447191369148 3.983017726091367 1.140117220390600
3.727693544948564 3.975466094743549 1.058240268134720
3.903233116199012 4.070350238510451 0.941652817293395
-2.246243451984722 4.373879973052667 0.989734014164295
4.087923827499359 4.343453923494309 0.978041758607577
-2.332181739397239 4.627392694153711 1.081662550028029
4.180065043425421 4.772241307571930 1.107688353040438
-2.503311892606884 4.924743918054697 1.047426188140932
4.143801544492431 4.932082948234767 1.177632421272531
4.279315824647465 4.855423274788759 0.989948193223631
-2.615114544998781 5.244819147650663 0.982698096958152
4.180311549538652 5.241784211247942 1.151013903008986
4.272640218985289 5.136487048081460 1.025492587789338
-2.629030661235042 5.576961401778984 0.997707692064435
4.057750082805813 5.580632011531307 1.081809353116586
4.222218141050000 5.465953770063365 0.962515857650273
-2.604105378433864 5.816919836908385 1.071451865639060
3.948308173188661 5.848468181581881 0.948292802052986
-2.616692929677235 6.060071313177559 1.008580114599665
3.702710304217018 6.121342608779921 1.026456778167423
-2.552183001730049 6.353002054072986 1.067771640609876
3.551988650107052 6.398967515285366 1.074502156899291
3.584522131669455 6.559786600615620 0.962591517551886
-2.477875905469821 6.701652407224436 0.984263404860076
3.411742343523195 6.772154043172557 1.037471016526728
3.619534993730324 6.628213762770231 0.898882764058168
-2.322355015202402 7.056806947840742 1.011259759126031
3.277102736575302 6.899173448112510 1.146234311601795
3.408551440990057 7.029216280708418 1.058210801009327
-2.234599696870669 7.353802613596168 0.986703377516149
-2.095997759010253 7.460033316596649 1.169094528788051
3.512277201648357 7.343311666075821 1.106673157316793
3.608817954069156 7.285094152818826 0.954645393583590
-2.166635192253109 7.629099705951933 0.895197124888475
-2.046479615718058 7.681903078699890 1.096775753440666
3.551389721907790 7.612076878969371 1.039172967022451
3.619056300870017 7.593973235696775 0.971593783530519
-2.023341117626730 7.983779932357087 1.105433052871018
3.412023275849666 7.937322879020672 1.055312411399844
3.618259978433179 7.812009017097470 0.896587405166074
-2.052089256994765 8.119567700571494 1.023225985971423
3.177842606345603 8.252031896564567 1.084387667417578
-2.059580267720162 8.498159700425814 1.071619112285495
2.979782281560269 8.387040442742213 1.175940369228855
3.108799060566046 8.432058754805652 0.971611416469007
-2.124874003451534 8.792963941035639 0.934732066449482
-2.074658392630448 8.841819172624708 1.062371780019704
-0.750431398463542 8.878286219572463 1.107702435722855
-0.556563216047434 8.929790060532737 1.117908711877203
2.683856248788251 8.792595542797287 0.961320880903896
-2.130585773761231 9.072277852281633 0.912110189787493
-2.101907278583133 9.160750746398174 1.022818061548808
-0.713137575771314 9.063399904436437 1.127780672251484
-0.453183728628886 9.098683488315492 1.149715633534573
-0.139294938579377 9.204476622255161 1.130354933343461
0.166145765671526 9.237294227852418 1.095455945746086
0.655510104020327 9.272695724611248 1.084959613670697
1.436978624480176 9.272981046857527 0.990303041317977
1.688242850069268 9.204819680540805 1.015921097420574
1.937403903961604 9.143983439234535 0.978123414497221
2.109887296443837 9.067723702134984 1.011899012317172
-2.015040471004228 9.434610211866898 1.057853319808394
-0.377010869253949 9.571034274725719 1.164386889237242
-0.178829954104052 9.434059567150207 1.086760421892031
0.144750336803623 9.354964246443441 0.980931122677180
0.478059193242852 9.288974595434027 1.008162131118181
0.997792658711000 9.308041600691624 0.975722494657935
-1.843749579950944 9.629516222889107 1.171054388481388
-1.701819099510694 9.728789074869725 1.085095588478235
-1.310468455655822 9.832560337976679 1.036811198618176
-0.996980903713327 9.832592645306928 0.943777053842842
-0.657433643812941 9.760240201697799 0.986937753587803
-0.494537954535532 9.689232535917618 1.009005849473573
-5.557685533123377 -6.712662549196601 1.318948194597647
-5.227915007839976 -6.754337013131807 1.357196838936660
-4.892773280422359 -6.776138386168384 1.380306244651845
-4.738233710518569 -6.770339871268673 1.274779261575670
-4.409976619951161 -6.779144506325991 1.383009527966554
-4.134560357333262 -6.780619637723700 1.329406105012884
-3.789700947891315 -6.764966440362588 1.421103815061037
-3.496903006296606 -6.790955103751760 1.343262596670789
-3.192260660948870 -6.830805603906589 1.299656201723342
-2.733839131653281 -6.860800750996093 1.465879250161895
-2.604027805338702 -6.864387101337655 1.316571574288806
-2.281401795649943 -6.896804331737360 1.339699007415377
-1.960745132727689 -6.868226762449916 1.423827946268343
-1.659019579150073 -6.875912770990039 1.216644410114207
-1.402125416653732 -6.879361134712288 1.204392003043985
-1.106455396791759 -6.852561868967413 1.332395617861535
-0.773745949808726 -6.864756801336565 1.379780925095133
-0.507891769381002 -6.871771515624505 1.299766792199968
-0.191432712277597 -6.849121000230205 1.406298320231575
0.120152079923378 -6.829569108887821 1.386229807459853
0.404310315578933 -6.817349640304484 1.308524563877144
0.789851202056533 -6.763702608372069 1.330212545679526
1.032011003048535 -6.751915728629223 1.350081228343534
1.564382995520148 -6.761690914940088 1.324182613254887
1.934472220839629 -6.743375084696287 1.332341890652987
2.289713506045949 -6.725628182987943 1.286512502866370
2.585795454230440 -6.715843322229282 1.316813701752882
2.813814792387928 -6.717617030162603 1.353979557437377
3.163720456915327 -6.712011945047855 1.334502675116326
3.519643687142047 -6.694952787111495 1.343169856092744
3.603802388975080 -6.661699431959661 1.434026116004661
-5.818289772385370 -6.423858606235040 1.362131477915951
-5.707977635834158 -6.602557846218189 1.468079343849403
3.765205124569301 -6.551655316073473 1.362122188079231
3.928868450214491 -6.327248978846454 1.191768712556160
-5.848268844704329 -6.206729146038466 1.276739949662090
4.009120036069904 -6.216972995736237 1.295433172126292
-5.828373091337776 -5.880445997846810 1.234084569697973
4.277117328575189 -5.837316481184344 1.364594408894620
-5.802185159964768 -5.570567281200995 1.331019163858970
4.330159219360216 -5.543371432129289 1.270551764573064
-5.781857517947117 -5.312225265107760 1.317672212841905
4.284307958051469 -5.281638122680156 1.360533714756440
-5.781302021213795 -4.954290163936256 1.332763227154094
4.006068531805515 -5.013789378805996 1.379790806641198
-5.747512340711427 -4.769466081349490 1.439125585483894
3.140346083755337 -4.604885558882416 1.391034171764965
3.452833784969874 -4.709121668850994 1.317796471804408
3.653302780986917 -4.790480520404173 1.273245550952782
-5.830767975741741 -4.227008018477017 1.256367278563265
2.580253031135352 -4.257873767249833 1.333289197591087
2.883641702169662 -4.367613543351385 1.213487759099167
-5.779059324453430 -4.136068682573027 1.433793100864501
2.353935981593213 -4.002625740151975 1.314882717475593
2.471927499539882 -4.077818211105502 1.252286495892814
-5.803089380600712 -3.846983874908920 1.365526972408201
2.302852382471757 -3.788624440165468 1.318842495584940
-5.822833922644087 -3.433875841745470 1.385341809521792
2.309893911054858 -3.491611407740759 1.346067437032788
2.432642496006309 -3.492125721503650 1.208510063403186
-5.794317970023128 -3.118728959286091 1.432765420073671
2.341653693201056 -3.027642287755133 1.439344754625375
2.411539537233576 -3.147177279528887 1.304033016579221
-5.834953727650038 -2.829489123773529 1.286185405940315
2.509253294260399 -2.835946270345438 1.313229777419637
-5.856519403130757 -2.585039673884615 1.270560965653383
2.531712983390855 -2.576328765587583 1.382918996436731
2.742177962060945 -2.629108647474534 1.198157753382431
-5.839002202990238 -2.342043580489504 1.330817331801305
2.580690245170557 -2.228368523045499 1.446506922882149
2.776323220432518 -2.202958945868878 1.275236652899548
-5.811761561521097 -2.061676071583358 1.321227853468447
2.833135404270899 -1.940291633080091 1.340611245712948
-5.774840318479928 -1.706764151522249 1.315285355961391
2.857760611539457 -1.703253500529591 1.386945460189288
3.072915084007100 -1.554308384695982 1.252528031647545
-5.781277642788771 -1.479243427106357 1.225596144114755
-5.712094276090931 -1.465155655989039 1.480529263499069
3.072808813008693 -1.407996533237893 1.307664691856627
-5.738702498611870 -1.218978533153865 1.204926671608352
3.189568924636964 -1.055281255226445 1.345885624474637
-5.620161460196266 -0.739417428138894 1.307816938671160
3.196659969430439 -0.740504013595044 1.450578119861207
3.405457037798138 -0.673020746187976 1.248359794335866
-5.563635111418932 -0.437943380618477 1.219226511355008
3.373156650270474 -0.480551502729553 1.360465046886924
-5.477849208886461 -0.196836023453404 1.327539617054228
3.408653392510244 -0.201301239685463 1.396452986777830
-5.319446901205945 0.156447236358550 1.323141796516592
3.483901168563905 0.135840642831902 1.337308777791595
-5.189652971146116 0.443096390844804 1.292134392526524
3.513101393595356 0.441297416922440 1.292951247277641
-5.078274100987286 0.672930442393240 1.338848898599056
3.467747227307553 0.844297634366593 1.360977230496172
3.597693463352850 0.689039610975801 1.192865268314777
-4.936051552814221 0.955259822804497 1.339499127998551
3.361591198026443 1.164094523886554 1.377261426703058
-4.825134275115622 1.185519372543102 1.192627282816118
-4.652156864501039 1.370426708634744 1.356974435117425
3.268292894475744 1.346352836410446 1.453852402694082
3.331477985198916 1.467091838359915 1.310702764318878
-4.438579790529609 1.671931554626582 1.335508758516054
3.235128414067567 1.682089428956488 1.344198128592919
-4.273097858045981 1.859571937012999 1.293242604959242
-4.071874077588136 2.037375979927720 1.419529118704168
3.141408872633986 1.955594766243901 1.281950897181968
-3.861497973661703 2.232223973848626 1.436866912571206
2.830116858217041 2.374157531177473 1.356171603877790
3.016499266535457 2.132692663226000 1.313026643601413
-3.667157784700889 2.385960475829043 1.380038792027793
-3.420916875598297 2.602646864067894 1.283370112046550
2.753442865404879 2.540986667498366 1.291549606180614
-3.145686587227611 2.796603211176444 1.247650689856519
-2.754260677944024 2.960499362614803 1.410627324972358
2.368619899875871 2.901998834777974 1.383849755236809
2.561990395561689 2.714436558025130 1.341308338492587
-2.459570489310495 3.149214999223408 1.299391885158818
1.923460450753592 3.242559396932101 1.456681779270264
2.207190140915850 3.157104703705635 1.285061720308218
2.472538143584180 3.003455922635652 1.214240531728194
-2.218584314219330 3.302237781391584 1.196695521248449
-1.954858985673946 3.403738152787866 1.298186395709740
-1.658094619101579 3.570261641646470 1.203524083776372
-1.354407134847918 3.577332094954731 1.340923609076306
-1.114116809946766 3.567203451066480 1.382023326000826
1.949257853958735 3.428178618537014 1.361227751129730
2.220244592252278 3.496604478931064 1.313933734027681
2.448661961452130 3.553874488013510 1.195487724132925
2.753665998998972 3.562175105050546 1.286113099058326
-1.547448995163384 3.768769081736721 1.247616410161784
-1.329743476333741 3.674369498614466 1.360778327399767
-1.089906736093013 3.618694619584945 1.343516144125229
2.885965581452197 3.588171302872048 1.343027845849884
3.100309688247876 3.669010239147200 1.368807911971210
3.374832805056409 3.805662435544083 1.349519528523911
-1.715059582292904 4.021108857402673 1.375534582149881
3.494004684528628 3.957913865409791 1.465403042480838
3.709202675246250 4.070769405410625 1.253291810070394
-1.991763581958869 4.275357171838085 1.370030422925786
3.823655368945970 4.240037804336377 1.308969174279165
3.893266719013230 4.423629711382596 1.294250522657941
-2.237735460545821 4.696371625272766 1.366495511849974
3.819208732387351 4.509571825182212 1.414487045031424
3.966885538963063 4.719835149307439 1.346751531930476
-2.274302033005447 4.937865427811222 1.462043553502246
4.028234950060821 5.016806811387093 1.335844849424156
-2.492646331658754 5.314279789347687 1.257075791333267
-2.375471727634136 5.296670933429589 1.433447483435941
3.996116838596961 5.221069650489431 1.380306629262920
3.808338558347633 5.581083485761734 1.440249596556131
3.920496118004811 5.498913519038085 1.311349502633237
-2.489755062285059 5.791250597947425 1.306747779055228
3.564083899175176 5.942529375991410 1.388626269755405
3.746835736740297 5.743261234366908 1.355844191373418
-2.514435791613846 6.135815967292071 1.195892808350683
-2.403510170813479 6.231613473604302 1.348137256046117
3.448871048313801 6.136797139728365 1.315413983711226
-2.328742172420590 6.461377170911589 1.406010256398663
3.217191455317529 6.464074418790975 1.376131439366434
3.319657230096055 6.372897393242998 1.294884598392311
-2.213253249702366 6.778708880957367 1.381693448040850
3.207398631841680 6.713585079923457 1.292563457878746
3.336052726830782 6.633047791437186 1.212350967105073
-2.244593016831661 7.006401832240018 1.193508693056802
-2.109592754584846 7.123428213073650 1.352797913874913
3.203557111071476 6.966336186567256 1.372856683166083
3.304593552755615 7.070404901962062 1.276667997805708
-2.033899815867108 7.349549643506249 1.313548057876447
3.242080998874254 7.284204813672915 1.417268552321575
3.354028205859196 7.317549883773262 1.289645485507599
-1.957394578560211 7.600805821848246 1.317536593059974
3.182135220961654 7.588531639874120 1.428997178279381
3.343631872663154 7.661797386857642 1.262511529233406
-1.832120479505009 7.799114132020176 1.475645294563376
3.129188477039342 7.953788197458140 1.344646644276619
-1.917807803260560 8.214464980285861 1.309823898428379
-0.997171256609694 8.345192035983148 1.471326763078004
-1.956236485029688 8.536523382923367 1.352784896269317
-1.051811531849046 8.547470163599650 1.387436618393135
-0.821285150781200 8.531473824127405 1.374003800488252
2.597182368041364 8.539960208313381 1.345299891393775
-1.992353792307111 8.823798920922501 1.278952883442390
-1.005265406532527 8.779387327898037 1.277831061694731
-0.761704368778217 8.732793905281190 1.229483260316506
-0.466196526585955 8.842477439409475 1.305920983587110
-0.190011110851989 8.900758669901132 1.407820886995127
1.723576241082459 8.939051179626272 1.478360175381252
1.954521404439406 8.908900038229714 1.351406982717034
2.287268503860441 8.851891091310392 1.215159811366974
-2.012081018962680 9.157106889797713 1.329864466740089
-0.949750604604541 9.121920313707266 1.311133765405958
-0.709513612439041 9.198728742882670 1.236817438479944
-0.442101678265367 9.083255480738449 1.225147155063580
-0.157268203628658 9.091344502513623 1.241187448678353
0.277229017841468 9.107235448689655 1.360946343268350
0.433012893327383 9.148883798519094 1.326173478517915
0.703544299445570 9.147429258606600 1.379389982730726
1.021087220142137 9.192155946719231 1.306087756866068
1.471794328987208 9.176032902552524 1.227011631210462
1.602492272584709 9.094848013546848 1.313221789343476
-1.933674252669700 9.447600983443589 1.324957101616884
-0.728911946753342 9.433430761855504 1.380580510386360
-0.490566739529840 9.439578182397138 1.268616135377415
-1.704190197198979 9.690714176118124 1.355487883729354
-1.339232275321506 9.801508259931042 1.339163352668767
-1.013363915380870 9.740216165745196 1.394578984110489
-0.774773541843154 9.674641131391091 1.321933082251583
-0.607646982819871 9.595337907688776 1.306811802006384
-5.584907535748143 -6.681366272704182 1.641773373652017
-5.375540177913492 -6.748503192907831 1.712001344027961
-4.935030617509927 -6.776337259679323 1.699349533149696
-4.579254545397371 -6.782129798314648 1.636821062286947
-4.388323430658279 -6.776964057388746 1.753102185200238
-4.073567579319709 -6.776128297524048 1.686537605722605
-3.742828723665171 -6.838736288205704 1.663001774805943
-3.455324418998975 -6.867894399310687 1.626783068270389
-3.123530267478464 -6.863079463131942 1.615780094929952
-2.817989963752022 -6.851533695085461 1.631288402396057
-2.469360793795132 -6.894285898422106 1.658195004216160
-2.219367974076178 -6.863951484917681 1.774390348998033
-1.664704604197366 -6.866034005958288 1.619210372069880
-1.316463378610867 -6.851628151620608 1.639991618471600
-0.963384889679660 -6.849444073532711 1.687288603223597
-0.729138875740236 -6.838177809257282 1.625740772258731
-0.561813295278679 -6.844581879500923 1.550926344405886
-0.164613722887880 -6.810624508570111 1.657944435032091
0.123750461688291 -6.810042227127096 1.648184978327987
0.497315131294387 -6.793257129235810 1.619026587147246
0.746158279479165 -6.757078915343118 1.634275982327513
1.005722510672302 -6.741971135932813 1.636426451324600
1.342569623317509 -6.741658535885716 1.583968636834269
1.941669832486184 -6.735990078700091 1.671505939857744
2.297396792723085 -6.726545450814949 1.684349582905740
2.562701275169072 -6.720480252513333 1.543591219507495
2.835664784209039 -6.711072606462269 1.695664071492806
3.163422176234386 -6.697521811575766 1.727903946878095
3.514618003818166 -6.673404152859920 1.643146494358604
3.617588151642583 -6.639695891563457 1.633270747044513
-5.783474777929553 -6.462156461067933 1.580205069543806
-5.705200388851293 -6.565865594693632 1.741879234048882
3.698047131623505 -6.583588236318820 1.707490664794541
3.928578275951581 -6.354689973099897 1.656774980682139
-5.817180790730503 -6.229193391330881 1.644307842290526
4.096541719087317 -6.146850882162159 1.595294367898895
-5.780465770230341 -5.854233593375283 1.661208138101873
4.308809320554066 -5.797507223170879 1.642885747773797
-5.719251829014813 -5.580766930210675 1.741599355528578
4.362576015839736 -5.541531472472944 1.624809579538467
-5.688589450743961 -5.283416771386510 1.677974151394410
4.285451870281352 -5.289234773247325 1.629261718993996
-5.665106992010239 -4.925473918822583 1.717926958095032
3.745546599313446 -4.893030377080659 1.578082371438656
4.035480687400789 -5.068254330566350 1.692492923598808
-5.670452257551490 -4.651473735009737 1.690049104831991
2.890124647269024 -4.578088226054735 1.707315538551992
3.418286183967175 -4.776041806474187 1.632073068158793
-5.748647949286831 -4.378228453979562 1.506539090359157
-5.682559814173994 -4.288714545888278 1.727727795006015
2.489208292073328 -4.347263810851510 1.643874139064103
2.751044489915778 -4.465668479986678 1.585490158244645
-5.691973436489445 -4.023623670515927 1.670901094565030
2.276415430220801 -4.000420380251295 1.628735709109714
-5.720636902250174 -3.705340373501116 1.698762084111731
2.248599647268077 -3.740798408087883 1.602854904472359
-5.748214344678632 -3.517995727445455 1.628327252148688
-5.710416306729671 -3.423185547346708 1.709696991153820
2.240918332955424 -3.447003939199372 1.588699451667766
-5.733418711671591 -3.170906066863036 1.608627650430085
2.264393659619171 -3.254820475575789 1.634678139556377
-5.753799489188447 -2.790544116429736 1.546179178670815
-5.706138011479776 -2.866585335268088 1.688534269737217
2.330038388035856 -2.862620755860054 1.623453967793172
-5.751520816499888 -2.575131303661956 1.559293785151645
-5.685426527609861 -2.521581805153283 1.731508344354686
2.361750627744994 -2.514701408886717 1.682357120027480
2.395716637632247 -2.567232654506794 1.557766386095107
-5.731086725971027 -2.310830557501961 1.668802538201166
2.440136346936563 -2.279529192309173 1.597991615778282
-5.713737334600822 -2.015942797118054 1.651929472853887
2.483397406503572 -1.988970898199338 1.648624113446200
-5.739560713846220 -1.763561542626999 1.566093156685202
-5.684981384669429 -1.668556157615255 1.671120145364641
2.559112005728075 -1.652837142451307 1.683723633313045
-5.651248508264207 -1.372982014390858 1.661265107877634
2.517671838969942 -1.518585116395206 1.776759198190807
2.889907904135860 -1.408161501803349 1.508097711945479
-5.624650463144006 -1.071410482755810 1.585196729580335
2.744012379373089 -1.185566954923111 1.704954914119117
-5.560994194269211 -0.826166722241833 1.608296352367679
3.071056288269932 -0.743022644146745 1.620531047604833
-5.493516193075316 -0.479505340883507 1.590071763704915
3.085598255480664 -0.433361775158206 1.710566330523861
-5.386483013860808 -0.237772961137046 1.702372931220185
3.294227988445527 -0.050407250228694 1.568844605140614
-5.246071885229999 0.118568331465738 1.672103645191026
3.132085545164620 0.260017318288115 1.768743666716313
-5.177238613228099 0.348315973726124 1.569036673994082
3.144150735398005 0.459792357585050 1.760043882554972
3.330212516145875 0.419413204577529 1.550712500648513
-4.980968623408687 0.673311266527843 1.674761228820637
3.214789884597963 0.676947142941600 1.691501159565235
3.288805090638180 0.697962232876563 1.611028747782174
-4.941658649740744 0.896449357612626 1.513650904150650
-4.731844137153889 1.125661108442663 1.653964479634071
3.163575764256768 1.043175090034073 1.656510881077709
-4.592667057809889 1.377753549602302 1.566064399611023
-4.501220508655150 1.431259813881482 1.693578946931080
3.121750789187775 1.363161918253859 1.601912834161964
-4.359236774373827 1.680435838020252 1.530827634733911
2.963394299534226 1.627423414360618 1.644664938880385
3.039435340859774 1.532170103133214 1.624660015139632
-4.149807760425402 1.876366896726705 1.613279018422160
2.817393272995197 1.928311817556575 1.648728621150758
2.985726356958911 1.861272154645641 1.534655994197679
-3.762950912363965 2.193521981532928 1.673395681993669
2.557359027345482 2.284526050439289 1.672395693200197
2.799213654242672 2.189708000606251 1.524319068619900
-3.482987185915018 2.489177780646969 1.505887795882840
-3.286980270070504 2.556715899510342 1.616623241299644
2.275863247059814 2.556424719341544 1.737446857685483
2.562076035627591 2.419085193369220 1.602911521194877
-3.084528219353790 2.703736086225630 1.574691048497291
-2.925241602056798 2.715252288528492 1.717590393819454
-2.629450597357367 2.854017242313524 1.712221223220656
2.008181572319286 2.956371361538600 1.775470573578722
2.205022532071396 2.864518692674750 1.609318707774402
-2.509378806865601 3.031211232893292 1.491886532671797
-2.271490348538688 3.025663129388489 1.649490683616505
1.669478681654571 3.204008142572105 1.677365726260156
1.886878641778326 3.159269975298175 1.621096386436930
-1.651878949113466 3.347493960611812 1.570955824084466
-1.318251248121185 3.488020748695972 1.565986688450347
-1.008017249460837 3.542421401374142 1.634996934142863
-0.793099133550831 3.532111299953348 1.678821305144648
-0.569730879132889 3.495073569065744 1.710977134598623
-0.127626208400043 3.461198406286632 1.763622777358782
-0.005805325083720 3.428144417736859 1.764562648482777
1.353191516115960 3.424032437191179 1.705782108991043
1.613901901459943 3.405790217233564 1.584608754578508
1.873642872947233 3.542756713198273 1.633778196979000
2.589864935252396 3.578179955275540 1.649604350981728
-1.341798045384379 3.781270815401386 1.594329408298661
-1.046437065451608 3.620291938962446 1.635297647406667
3.103584000666218 3.728244693670409 1.690682529686081
3.318381327234892 3.859853544219456 1.646245394541547
-1.645911797050358 4.126453278422194 1.659562286723874
-1.514358005055887 3.984870368051344 1.684360825383300
3.481320388807308 4.029746551530053 1.644854759238341
3.609612619719827 4.105082156974195 1.513466409176801
-1.885907569039445 4.287314315945027 1.541184323403822
-1.802621401806917 4.292634966377515 1.689095920247728
3.654326595943358 4.311698263589882 1.586130210243401
-2.085479356176285 4.600828317295255 1.562211839235035
3.762340454503040 4.613861938490366 1.577881426945010
-2.175198725475884 4.991957859091451 1.684208124924935
3.824746007611135 4.953179575717506 1.668003375559472
-2.260939993400078 5.260961747811231 1.632741167180515
3.848222608422338 5.199366106731269 1.655014053670676
3.902311528893786 5.186791277238821 1.543716543546819
-2.236034887887572 5.524974173730929 1.726465323946989
3.785405442570043 5.481883059004970 1.671530495795572
-2.270401544172494 5.865978577064928 1.651038210652605
3.649753708334108 5.768872387193808 1.547890224584474
-2.286351247086510 6.093355910582821 1.604571482868396
3.237154249352900 6.263415898270648 1.622033713210740
3.397618782443481 6.076310716987010 1.627245045341693
-2.154237343025825 6.342598620364802 1.706806964369750
-2.040393885102161 6.466702673360706 1.767724033172578
3.100640927139347 6.478385895488088 1.605079938708769
-2.158412917533385 6.603707883552966 1.587679541993004
-2.045136938457283 6.748693684782882 1.649029416596416
3.036493894533602 6.743476198874739 1.658244106229994
-1.948793905714199 7.056130919913794 1.626809931874664
2.921014419441257 6.919308488738282 1.778749471744490
3.091101507417096 6.936339501033454 1.558951461571773
-1.849389161720522 7.246600442192655 1.667521960836176
2.911175121422834 7.340619743580540 1.733045486891776
3.032912810405215 7.336979370175758 1.620918932804289
-1.685021141802972 7.654131535882546 1.663281949180919
-1.452611478092887 7.747159921353585 1.778490184709401
2.867841760890929 7.737346540204485 1.654032999576251
3.060016885357473 7.760542256589497 1.490747492182191
-1.830287482295293 8.001434349894769 1.482351373256832
-1.659846039316229 7.951789225777081 1.636990389777913
-1.382872898682212 7.955137708961852 1.696548002415301
-1.137960211381089 8.039641377343164 1.690316734968848
2.812833225478739 7.943556339736435 1.607484724382444
-1.657920464248538 8.254942307735579 1.634847179082128
-1.411600948672677 8.226784791503498 1.612510354170718
-1.081544654261558 8.243854426076464 1.583295567454047
-0.826583819211512 8.285586372602197 1.627410576031027
2.555505882432561 8.193501516991271 1.651915686026143
2.782179525611616 8.191470918445710 1.503080490065236
-1.857564691401971 8.512930274542084 1.516454541370314
-1.701042776849726 8.568782045080368 1.665191128968835
-1.377926841684922 8.527084731302612 1.558751108787471
-0.640692411307784 8.446253743656330 1.562244915787434
-0.410998654045107 8.638322715466336 1.543585834952453
2.257201799387452 8.549388031653120 1.559355421541775
-1.857644749676384 8.749433482120832 1.556842195268760
-1.680538404399744 8.841427106012544 1.722438741852563
-1.417535894841422 8.866777393912772 1.626799458619253
0.065905528082355 8.825108551216344 1.605513247462296
0.360769146724976 8.974232678850537 1.557488282702839
0.749446033561467 8.921043274925738 1.725009778128609
1.536885433853299 8.952316238069955 1.546610534783502
1.940133577513111 8.709419788528583 1.606807493313161
-1.900224745869916 9.192272483874779 1.547385910709517
-1.696629098501637 9.136843755932881 1.729502765252606
-1.359448616811316 9.186814107175092 1.662272007836259
0.671757140880332 9.009199269240607 1.616439693060747
0.925592639429207 9.036780380267004 1.586360030153096
1.221911093838995 9.037296824183541 1.545283567405844
-1.838386622300272 9.436759743990853 1.553493357058384
-1.659580519609370 9.465600229464037 1.701837118684416
-1.314039007357864 9.446067923700980 1.740813062565143
-1.071579564753428 9.454722368133741 1.608575017883825
-0.870504747123250 9.543354762435204 1.542460048752180
-1.625154219022448 9.624724678953140 1.598960036878185
-1.368171927336225 9.669089696562674 1.625313463437966
-1.045817575352598 9.645252220111262 1.563653223476419
-5.490224070205683 -6.689708615111880 1.963063027508174
-5.219136052968241 -6.767933192125092 1.922395041445593
-4.970548976864443 -6.784150722412414 1.934000749648746
-4.633650543295357 -6.769921769445318 1.963054309657154
-4.385354943215029 -6.777329733764110 1.959088594730710
-4.054408089891449 -6.841838064096065 1.947674235467987
-3.786856443279540 -6.868314690458620 1.981019335153802
-3.330862855216670 -6.851905111041475 2.029270687908752
-3.097767124244412 -6.841141208000163 1.945258966677079
-2.879114308338492 -6.838397806791846 2.015997937243581
-2.571435152841774 -6.884033074465933 1.895793761647639
-2.320130986871878 -6.861866301185019 2.036349898515323
-1.845109564710067 -6.860796609030677 1.942488583522619
-1.637084677037919 -6.870520168701169 1.891785364753757
-1.386017194806123 -6.838696501669329 1.957757998202401
-1.151615916334506 -6.855773470056980 1.992018442659850
-0.829551241577940 -6.841637119602417 1.934985649853915
-0.398252879722815 -6.811893251748196 2.047383029308722
-0.156976471197805 -6.803458730886330 1.941373093064954
0.081421744730041 -6.812228514263214 1.935446887288537
0.443711175802306 -6.796206445296274 1.888283155481091
0.726170258902042 -6.738942589991019 1.889443142481519
1.062862895960849 -6.745255931468388 1.944999797983860
1.353230036394336 -6.718472405192097 1.951417122516833
1.623465804799991 -6.724793083865347 1.956756470964631
2.176628737844764 -6.713665950180631 1.900173613944824
2.600244878099574 -6.697211341682313 1.889529768729664
2.858979848368989 -6.700571422370250 1.939322938525531
3.114810354146310 -6.679105035717664 2.064604256434746
3.512502228712356 -6.655810385530126 1.964935491731218
-5.756987145773177 -6.438496430359702 1.796253180911936
-5.661851703047347 -6.552609352719193 1.939749856818129
3.721206576225654 -6.542611713279981 1.950257076345471
-5.761933776728532 -6.210192657519952 1.938583361014904
4.063084737026139 -6.157615850280290 1.949298960849997
-5.753999013579665 -5.964423222423655 1.943659221291261
-5.703543602684594 -5.819800701146255 2.068713086128162
4.258477379675703 -5.817089567820898 1.934448515833942
-5.656386320509011 -5.625233177454996 2.001258457453404
4.300987830297523 -5.525572282485759 1.890793462654669
-5.596992844099266 -5.350809507263754 1.955451100978075
4.110554224775919 -5.184121611963572 1.915758173021886
4.210545766927282 -5.332606871017700 1.991888858313241
-5.583231874053330 -4.991495545805014 1.934103647903885
3.415982777827986 -4.874719635537226 1.958896091957055
3.752894209279022 -4.969044258947260 1.889300185503707
-5.521161622907544 -4.634185348873028 2.060370102702006
2.826913994702138 -4.593258529419189 1.893265466509965
3.131710578952536 -4.747966381460767 1.899283860602371
-5.616262983175087 -4.385431627693961 1.859719806941578
2.376211767459166 -4.291845990085211 2.077654169360496
2.485518550385508 -4.433254188410054 1.914319313407042
2.730610221874112 -4.497588418128991 1.852611010867745
-5.584691561837127 -3.999252227661902 1.916807096178211
2.317802067006833 -4.106054107693353 1.943948951772163
-5.600109140536960 -3.751254533513263 1.947468054346635
2.324375740872467 -3.750517342563661 1.968952113384998
-5.628869350775638 -3.502168094169363 1.914008015120506
2.326825101983485 -3.475598569439604 1.927686915080256
-5.619160051300366 -3.149879142741168 1.930053397435649
2.328792101636254 -3.173529568034361 1.889587006746994
-5.630610889444221 -2.834278971476038 1.897812989511949
2.355437089031178 -2.827003826181610 1.986846902982365
-5.623408761082998 -2.709612479023827 1.967290672438116
2.358846636620377 -2.585951971353121 1.979078114304841
-5.599399641584715 -2.314188508036255 1.976708949533750
2.374584566759728 -2.299473682802130 1.938690716813777
-5.591441782047738 -1.976158035871483 1.973750659214883
2.377137910926351 -2.017468638006650 1.957312736920101
2.412524062689493 -1.893131175397689 1.832537389672009
-5.562594353851571 -1.715383561830861 1.971778196112492
2.376174726454153 -1.812495077086088 2.039328800043049
2.415813059361420 -1.662071476835147 1.884533848385850
-5.545503835319913 -1.423035299614897 1.948242779392371
2.454017443841408 -1.389648533729354 1.907089019680984
-5.500235644399975 -1.064422809584950 1.965824357509652
2.502828967833506 -1.089012849594755 1.936232637851739
2.781817872859799 -0.947410807288407 1.782103398655236
-5.461960215351267 -0.836410867794277 1.916866503796474
-5.395917701028949 -0.638479594817141 1.951165527703233
2.644286988085220 -0.799289212797871 1.965011171356475
2.794976246108533 -0.694511215410913 1.870797848474282
-5.332586694781238 -0.427972723125408 1.968552078420320
2.586133793634054 -0.612227818005781 2.040197902729352
2.864467952546183 -0.493681059733174 1.880558942240909
-5.278169710925138 -0.156475410672035 1.909048366559555
2.846282949238615 -0.137435624044320 1.978927405934606
3.058640569420422 -0.101337803728000 1.799991482213356
-5.152126231931953 0.102706240982109 1.963828166862517
2.903387398046261 0.234401392339161 1.991346970894860
-5.004407295650860 0.405785507199788 1.996942411147282
3.069816183824158 0.510725041237999 1.826235093435752
-4.905337755001266 0.709848016836468 1.844696661691289
2.839737105435853 0.734449102087384 2.007864537267513
3.043692275402306 0.773303932926961 1.836048770439526
-4.643656072192506 1.036167081785381 1.986555841155437
-4.569035133295558 1.286728297501381 1.781068143984787
-4.472733372279305 1.289513118363866 1.991761995829619
2.810789540294824 1.340407735382271 1.915208494763794
-4.190975701437429 1.726747035003062 1.811961525584025
2.624190763592495 1.682942673832339 1.935794102332330
2.782753246992770 1.614816928418199 1.832524017040807
-4.014885012102815 1.909066293589516 1.815736512864851
2.635093481646202 1.925483387715345 1.837642539560957
-3.634153539183406 2.139628088461675 1.984161607631752
-3.322738094197042 2.343463792311322 1.960766011829914
1.980005556717173 2.339426204423074 2.075293367414818
-3.226145803892272 2.461104130761586 1.880015082458045
-2.793698697514279 2.618474674856789 1.971406010934330
1.760048021704976 2.574010321082373 2.047215812247754
1.969700110076561 2.496908226558923 1.986953410664511
2.129699086254299 2.532501377974678 1.869258753296353
1.595778087473224 2.870488596186313 1.962999122898887
1.890177569305431 2.749381846878771 1.896776373910006
-2.069920654797611 3.037667728584921 1.789674674753316
-1.557606987835159 3.089258629713527 2.024920440802474
-1.418145414637964 3.195453593469555 1.956900493019265
0.684728119779425 3.259869380459913 1.964451059290262
0.977913414035179 3.186366180516141 1.928099691519503
1.287174307229974 3.143179406112699 1.861773393395203
1.581340438620059 2.993982537676331 1.889667281981500
1.856606702918936 3.011008974085898 1.825786577752052
-1.276029078292370 3.381061631767843 1.838199456396706
-1.085761506413042 3.384320885183349 1.940152633369441
-0.731876465047873 3.513790847802104 1.844873609083711
-0.515584359043955 3.485696540686023 1.925984363482975
-0.144286909263312 3.484612474690696 1.917622598450825
0.073475990580086 3.448184000852508 1.905130229995380
0.448009825853678 3.468548580326038 1.961809446882061
0.780156095152556 3.433937505816576 1.895638778881800
1.084885883870866 3.462894176237362 1.836611781881531
1.200702219093462 3.536492789313055 1.855875352983620
1.547536557093405 3.564312595889327 1.807242170188180
1.898066474980041 3.563893665672890 1.911682656564608
-1.012135230925459 3.770445315417234 1.892581332164987
-0.752133055922257 3.683379403560745 1.939369304869825
-0.391405027470238 3.630692877629559 1.997339171986917
-0.257566290668149 3.610938582243810 1.985539284500298
0.156993353446536 3.604702143257679 2.024557131264491
0.434428557935894 3.584159237380225 2.019250208488813
0.775067876603874 3.593217360721050 2.003119501686085
0.999315008514459 3.593746467217572 2.029449975840362
1.302965215079370 3.604932140680178 2.061833281570941
1.651480362645430 3.587812036681257 2.038341355487696
2.174017761187915 3.605022908893738 1.955291871993268
2.482578800292793 3.638589633314816 1.997455482320548
2.833358981647002 3.719006483590357 1.969653634122905
3.063057738853647 3.824180926238633 1.948665082352076
-1.529153105524517 4.117687222814186 1.855335595718883
-1.428634764543079 4.079405639988288 1.912333359331580
-1.004863714781682 3.899855107770127 2.078755695477613
3.244258015897298 3.994509964165746 1.963179949274795
3.374116560617629 4.101407878623931 1.902198177055064
-1.591900923041549 4.286859232287595 1.956321327912134
3.454187438439002 4.236452933268181 1.866535529376709
-1.873192918628714 4.555895743915944 1.860754055706140
-1.639358971077322 4.486230666640136 2.074510654292921
3.461063367300012 4.558681097316838 1.968007232455214
3.632439701182749 4.677404441381713 1.825714389211932
-1.940611886953597 4.912453819099183 2.007336969215288
3.534367545805508 4.779620514816544 2.078444693045750
3.707595545327803 4.848639149632665 1.854906488101708
-2.162245418962569 5.278513148751904 1.791766367288775
-2.034279693266759 5.161730611339449 1.976509859062718
3.698841678932307 5.204020137415398 1.977607045977970
-2.166461170534671 5.525432393447891 1.826475504942727
-2.045544557163403 5.494532818624172 1.985512637856116
3.571622276233660 5.659031487965154 2.077014768242019
3.640909310408788 5.530659553803829 2.001053370994341
-2.173620321073785 5.824247151243419 1.815190444033765
-2.096269294428788 5.838685924344340 1.931335749928675
3.538335903700362 5.780586693785461 2.030511265722003
3.614857235501450 5.738123560187615 1.853024201503533
-2.123373191868242 6.012366108148274 1.830725930682461
-2.031315880327336 6.105458950490657 1.918881668589947
3.233287251268888 6.182496982615663 2.002583294677419
3.350568658830323 6.070018361467752 1.998614700098828
-1.942949267071026 6.433288550779769 1.934919171308976
3.021298147667304 6.449928107895768 1.919400794922179
-1.908031581458340 6.697813929530864 1.867561730894176
-1.810786162378283 6.742910820595352 1.996688449496301
2.613498694065698 6.834655709601966 2.074850887166440
2.864424757763979 6.686949719921347 1.931351595904941
-1.852375400444129 6.894927223509127 1.850717659304814
-1.746936069245630 7.000903274531058 1.920773166130263
2.641053769880905 7.086001295226029 1.987144532783026
2.816284468853133 7.009544716150958 1.879345267479221
-1.601972230294245 7.318180054225953 1.900522722458521
-1.428264827860428 7.415818072456585 1.975112123247368
2.597375501971654 7.325110094906587 1.969403015629724
2.770870658263330 7.319944768177227 1.854591639559100
-1.328938189500323 7.584140032284608 1.931473559035184
-1.215855788136520 7.723739237075509 1.903781324993747
2.294160852655782 7.701788477152902 2.035447305080078
2.455408986432277 7.581691894039571 1.991880396869603
2.729862715458257 7.553092865426540 1.831800356511566
-1.256578172011575 7.841174607408577 1.794972603546946
-1.054902562297697 7.907032212560506 1.834646833487825
-0.798017275441534 7.992641726537157 1.956395528264029
2.372109328226678 7.914216510746792 1.897416662592501
-0.556167500560976 8.251049540709584 1.861754103670548
-0.209754518785786 8.329946052993439 2.012842114621625
1.662054682012523 8.351506758115658 2.034992398935450
1.909813207243813 8.162243021140547 2.028979744423693
2.228931997854116 8.220567042079686 1.831766629078887
-0.133713477460237 8.490286622976189 1.893674870205944
0.271321865105968 8.558737808530218 1.989506991514871
0.718426677042625 8.607901281240871 2.031294452211375
0.977060820039608 8.665596847684419 1.978857406719062
1.317307894582622 8.608461866674560 1.964528809898227
1.974508103532325 8.477222390684286 1.789449115150907
0.124521616754310 8.693318785534986 1.790716201542825
0.391899093720446 8.709757417880983 1.857107883549776
0.776445908498026 8.764153968041027 1.882887949671102
1.164818952585731 8.815960133029435 1.819681320727763
1.577715035461713 8.684221372693639 1.815112851214957
-1.614426972375075 9.192435647726732 1.796879120642809
-1.581696954553648 9.362508978460294 1.793962378181801
-1.449062346269143 9.388689217611812 1.784732067421509
-5.435653705425471 -6.676492875642124 2.257895581410170
-5.267817677035413 -6.745347370285874 2.302992393580078
-4.985803046548539 -6.765139692858877 2.250749310411138
-4.677812068116332 -6.785358969227040 2.241584971298112
-4.397511966738796 -6.825930924807616 2.188559869279573
-4.134085037216223 -6.865993118842530 2.238708814181094
-3.747791910648006 -6.859903127919349 2.213779152730761
-3.455368915541738 -6.842765627665679 2.274255693926051
-3.092441266769686 -6.836968473697461 2.279550190805479
-2.888501422075275 -6.853898934851229 2.311901840086086
-2.592679411806153 -6.873245848214596 2.209712363986325
-2.000367588100859 -6.863085143541656 2.228288575927504
-1.742463022726568 -6.861384176410510 2.100252259306806
-1.387596703732333 -6.838491119355593 2.199317539649114
-0.903868041871431 -6.822787330845462 2.202683655772372
-0.614527379086438 -6.825621263583603 2.261460748557170
-0.165393388706649 -6.817202038408311 2.228728423069296
0.108678894889915 -6.781214128102873 2.352043283725974
0.482655907015071 -6.759939830027400 2.255382000111548
0.674808349290048 -6.751948183886810 2.165928446373480
0.966704210264278 -6.737498266926553 2.218043799218426
1.196591850955749 -6.724204648645141 2.284560608028252
1.637951283491897 -6.714538188926465 2.240498794121410
1.944540096178123 -6.714571206307929 2.255410816356662
2.264322607160993 -6.699515339530848 2.224922933171723
2.464571250617866 -6.684925680546888 2.219022999290235
2.845386272896824 -6.686912758870107 2.244716202479680
3.119737399522337 -6.658035567693873 2.309909673062499
3.459351463407802 -6.651266057758606 2.250384186297829
-5.585963618587545 -6.508086794468849 2.215152766528469
3.739794829452009 -6.498286647885438 2.169378585223764
-5.654589654253094 -6.179240755866468 2.243738402786653
3.987882995959537 -6.179132058859746 2.257281209596997
-5.680183450272535 -5.934773791380936 2.218805960302397
4.147954279019265 -5.839727105056892 2.230973989619987
4.182672588168068 -5.891318242869236 2.120134403358419
-5.587787976840820 -5.602074620416865 2.181451467678637
4.125425182382610 -5.619660222157694 2.314860978521681
4.188653704571724 -5.534671884651686 2.132144091255220
-5.475799882740121 -5.335263409294134 2.215888182350036
-5.370670054976478 -5.230013819559010 2.347965577944119
3.822521357985799 -5.135658782288631 2.252088782579625
4.033483017480291 -5.279394686283108 2.229956190375223
-5.466669807542916 -4.974233609076038 2.165433422335244
3.469966019010372 -4.991669981719994 2.260418038348970
3.668186282831728 -5.028264542031650 2.174846334599481
2.542098014938403 -4.586865494554837 2.200020934133280
2.799982403024020 -4.720069711840547 2.238232014790692
3.032396484830550 -4.813592924113374 2.165593420542200
-5.471831524845268 -4.255789471081189 2.159621534804330
-5.380335863814873 -4.505652351427926 2.329992169898413
2.381181415908051 -4.234858818069794 2.140231574586096
2.428637807157657 -4.422916266788211 2.258650661705643
-5.501020191820842 -4.017985508848778 2.132045985845777
2.374614862278205 -4.072028926871576 2.168670309137500
2.417207106855184 -4.159944509679470 2.299000801231601
-5.486668044968066 -3.737337766396722 2.189879420566770
2.370934607663554 -3.844003375765962 2.127234619646746
2.400376348726091 -3.884641559401188 2.261472464402206
-5.533595566404887 -3.516039181324451 2.106748281182699
