ply
format ascii 1.0
element vertex 859
property double x
property double y
property double z
end_header
-3.180648448671547 -0.326726792401171 -3.164307242886869
-2.933671206780153 -0.366395327979922 -3.357271506156998
-0.282825495537583 -0.211722189654309 -3.269330879156775
0.314689151230715 -0.362895595321170 -3.098616909802905
-2.892867341924224 0.022956777463963 -3.099927852905254
-2.514265385573627 -0.064454298887199 -3.340718752663736
-2.057353246176784 0.084998113560174 -3.329923252747466
-1.780564778111434 0.148197120337357 -3.301287288326572
-0.965713660363863 0.126968778640819 -3.250116789438495
-0.584958467720708 0.003082057631174 -3.253830435471778
-0.041273948915050 0.058398408513635 -3.098090513670991
-2.303513987694642 0.348375096307218 -3.107632742480752
-1.969727588435696 0.382700510742425 -3.150565498179258
-1.455555136242561 0.223986213279741 -3.251202054672953
-0.514695346580492 0.278039124376890 -3.109597153088089
-0.249919576706547 0.172462928038733 -3.106636063510175
0.460830285584893 0.429444442722004 -3.132322962630279
0.588899673659626 0.435408521287937 -3.115526569077372
-1.783041111183775 0.490304876046254 -3.100434357023159
0.335724043091015 0.629142716836119 -3.168001531318458
0.597659233364453 0.607622289118951 -3.246835824399484
0.906510847089198 0.577444367027044 -3.201547740432266
1.141036108813152 0.649595151228009 -3.227582922986707
1.469688178851719 0.655253872534115 -3.160067571841337
1.853417153365308 0.711157520285410 -3.080045636455245
0.292448862700607 0.924628401418423 -3.209150225721714
0.629119952843365 0.791469300129359 -3.341380199241506
0.982049557964701 0.781401640098811 -3.324507206589878
1.284687104443476 0.805732542189314 -3.304097480648962
1.552317341215767 0.906536288091798 -3.289601435223560
1.845359922780476 0.947298513321387 -3.226242364535143
2.215719756729462 0.958313196511423 -3.097897160325865
0.281980804138324 1.180704230724553 -3.235198484058996
1.977480527335184 1.256069331821072 -3.315950374712898
2.225348011077420 1.123666008306063 -3.180094896080107
2.393530424752895 1.179147804334892 -3.116119878084768
0.346143113857604 1.435408827301794 -3.293266155314425
2.149480426326027 1.461788198603608 -3.306946306528410
2.575728321000405 1.483239694554320 -3.096352931402506
0.440605735985832 1.701310549496065 -3.224990083081071
0.527269278367749 1.924925091018623 -3.296182240447709
2.214248564156047 1.753988412754176 -3.336432246316563
2.443059448994898 1.784760937824042 -3.233973702572053
2.620232620029566 1.861498810558991 -3.128058871910833
0.583101077352026 2.085783680789953 -3.238247900117026
2.474312598771408 2.076875843934431 -3.207091068264070
2.659851202901494 2.084748739381981 -3.074845136598712
2.451703469251688 2.385243255358968 -3.206198785255074
0.744643455104921 2.696600184127708 -3.243453447200994
2.187321160445888 2.628541625129629 -3.316543275488663
2.379561740370534 2.686508735326676 -3.180350077961314
0.777604782101844 2.991376389351149 -3.245419800001240
1.960023429443835 3.137976623471439 -3.313233852993790
2.234377389623017 3.004359478870242 -3.175354992838997
0.807196429141060 3.292795574713176 -3.303505421077769
2.015894233104835 3.292418665582062 -3.230644808665458
0.825438925810836 3.633315256361225 -3.240774297232086
1.554068543575934 3.733965263291897 -3.330458555751323
1.784929914042939 3.500193795088860 -3.300452046409986
2.019402501515866 3.565508332400703 -3.113120860077157
0.882729972617046 3.921096246470939 -3.269511322839291
1.152737882949765 4.011679897591599 -3.360766340036179
1.720515713036809 3.873175366794678 -3.185409255449662
0.901948711934550 4.222023843191093 -3.202562342715396
1.163229955428463 4.219300195974430 -3.278675956830179
1.497828327401040 4.082744488758944 -3.215109962187575
0.950572858073043 4.533389920059559 -3.143243399981553
1.250260535158422 4.468746670181920 -3.166855498950159
1.441324245144794 4.376080588866188 -3.117436239534217
1.037194859793864 4.736046437263764 -3.109924740415811
1.106891466766450 4.831835874045319 -3.078280517107665
-4.695126360022550 -7.198637668919222 -2.960900896956829
-4.554972926000941 -7.276728613023753 -2.943451926586129
-4.195568099199964 -7.306741950966913 -2.811932387439803
-3.883519180705076 -7.299685184773235 -3.005776389874272
-3.382499469200263 -7.299791102325440 -3.053934324886991
-1.802166985757839 -7.300615470435861 -2.935691406172945
-1.422608208688615 -7.304124889317852 -2.958827785399805
-1.020044317417811 -7.295584164034305 -2.965072764439684
-0.752975770257513 -7.310846386006757 -2.806729363969552
-0.587424669226211 -7.295555439372285 -2.930679806225565
-0.218647103966180 -7.286190086194551 -2.972935602544330
0.247615840717552 -7.282276480886117 -2.958907056560110
0.792107173673506 -7.299700178007675 -2.862075107529429
1.001091559494622 -7.283245400105802 -3.062061622864452
1.340216032669677 -7.295524116872612 -2.789371651924315
1.536702147330552 -7.281366198573400 -3.038803479275719
1.844028864992319 -7.279163380693686 -3.041082450910558
2.091590471907198 -7.285132246703289 -2.824925509560487
2.464127739150858 -7.279868953399547 -2.865405683845170
2.834131223998135 -7.299300111009507 -2.856594931893842
3.020363228109094 -7.269223682723406 -2.993031880816736
3.349058273804792 -7.156629427972561 -2.903744200770824
-4.796990920558939 -6.943957312641391 -3.005296866155966
3.364333299405664 -6.921949644391029 -2.993051995502544
3.536377064740833 -6.790992017528493 -2.788314257776650
-4.784559747834014 -6.605531286674643 -2.912132791733299
3.351826900724774 -6.570827985826539 -2.968208874051306
-4.749045835044383 -6.200049937127798 -2.946160469232453
3.227522150525206 -6.310158283918960 -2.972291747038650
-4.721817490398402 -5.998070843202914 -2.981706199347975
2.890711460009507 -5.915952378608977 -3.035018132923283
3.019942749529386 -5.919443798187248 -2.814645717529797
3.199860152551432 -6.104851545523685 -2.794540161265782
-4.687925432395255 -5.627908519139294 -2.929898933339807
2.840529228046281 -5.732415692913637 -2.962638813233012
2.933796300546462 -5.828147247398209 -2.851799620486846
2.894149364132177 -5.530945193747434 -2.820024874392748
2.917949305318894 -5.321138332526187 -2.863302956938931
-4.572525141862263 -5.079043578050944 -2.996630925097667
2.940259275277181 -4.949447886132640 -2.982791204798668
-4.559257873645524 -4.656444606140386 -2.820244874129775
3.057508075746333 -4.668651028796582 -2.909008978553222
3.221720956379955 -4.370226581195372 -2.793459683474993
-4.483004361555173 -4.204218668969221 -2.872683563134868
3.032970460002787 -4.206945062471401 -3.073755603488113
-4.435317896964044 -3.884003633379982 -2.929411913004281
3.148944167529166 -3.877337804640730 -2.971981973454817
3.241921741949843 -3.979487750013677 -2.850460101170341
-4.395510377070995 -3.550441056390605 -2.912914122333309
3.141116288896902 -3.501231516696985 -2.945451185329948
3.267418924697531 -3.702793397895206 -2.820472815827618
3.014349901963702 -3.225064043165992 -2.984802376483713
-4.336521203318330 -3.055329792614039 -2.854626513194131
2.998581287209245 -3.004768931998589 -2.874332707587339
-4.252109107862813 -2.724037280387556 -2.957519403023140
2.736149527691316 -2.699859353822698 -2.890177104977256
-4.202114056287630 -2.368279557864043 -2.918776959454808
2.037513215360068 -2.288442551406696 -2.940379723780709
2.370799345311471 -2.437317612992240 -2.916729269594791
1.250709688917529 -1.955275587979516 -3.022585698391499
1.598887403632598 -2.107274103996127 -2.957787685428498
1.791058658403944 -2.100219267624703 -2.830511899644011
-4.096210977749114 -1.763859413277256 -2.871639232399388
1.130216114999034 -1.734100774759738 -2.982446211958689
1.497225814625969 -1.883888048480253 -2.810964024899615
-3.950886269544538 -1.408429649201128 -2.977774223616156
1.227668390548676 -1.501722526888636 -2.828739283679211
-3.880929581911176 -1.181686667873345 -2.949022581195885
0.960264091428040 -1.152199169382602 -2.935317094879482
-3.748594470190474 -0.952312373901390 -2.985935479042906
0.763125771069037 -0.781803522386006 -2.974725661133355
0.852494058306046 -0.925568080633621 -2.963938474297566
-3.556538225403110 -0.497344122194445 -2.880774120265558
0.926868999767425 -0.608360784364104 -2.805560856594380
-3.331688807938740 -0.132388569909687 -2.850215755983334
0.387294965252139 -0.148053679389757 -3.014528616254533
0.610808611708615 -0.379669758806183 -2.949121150578736
-3.192571039008449 -0.062519355181212 -2.937045139372593
-3.080090087091131 0.150791246791162 -2.843934778336012
0.175362479041361 -0.082584459401812 -3.072770577674996
0.366500313995359 0.054066440007579 -2.982481022983205
0.641424605573004 0.012838390677008 -2.872747947094923
-2.897178750400875 0.293976041899130 -2.877557589022673
-2.635573270259638 0.287842101862824 -3.033813923836401
-0.885952844773607 0.444043176958531 -3.067577797107481
-0.374388287573825 0.437259109494217 -3.026646192863083
0.086935529410582 0.328280176332783 -3.025771641951649
0.329661534047019 0.308124660999895 -3.024121836906176
0.648579845718763 0.248810078922109 -2.949344437375647
1.048210285223228 0.245497496608380 -2.841807705979791
1.368386909927207 0.301759905739202 -2.776545310980790
1.613480348402361 0.407535170665316 -2.828680275652579
-2.704275610539464 0.553416075910853 -2.787802186863780
-2.346428113185997 0.620742267363303 -2.892980617145687
-1.388838100607174 0.610639610748407 -3.024620918630793
-1.188323630437647 0.652537561116150 -2.977675914017070
-0.663328846376510 0.725966976267355 -2.910533463910439
-0.195156095158723 0.623250380649568 -2.941269248133533
0.074175069629872 0.622238770297827 -2.997615592161776
1.174282344376397 0.493795479161262 -3.071112192342883
1.559578928352200 0.497017317415348 -2.967853786756456
1.981981318176552 0.545524958487783 -2.811483332645939
2.208247930303175 0.679182295348630 -2.847574571556089
-2.056570257908939 0.796937599935687 -2.852186401401031
-1.845517213966771 0.857037126612120 -2.859212401774535
-1.459062625302298 0.777767487897632 -2.921501757142430
-1.236395577024135 0.907900301306150 -2.837763132541808
-0.848452538721854 0.869844651788663 -2.839668832018245
-0.571887781590174 0.957802090509681 -2.796320496519601
-0.204334502990867 0.870759758657017 -2.846701364097840
0.081453309435815 0.943705873505521 -2.936333247029019
2.231508003714163 0.840810995535453 -3.008488049925777
2.485296652218478 0.911515575887068 -2.867245002384310
0.116561388734588 1.154935567757065 -2.880252400241416
0.225518002759408 1.302368421214978 -2.952500714690172
2.594274135539090 1.205832347336701 -2.985917368403285
2.676314145435983 1.222387490840601 -2.903690804073517
0.295919180414762 1.509676255396410 -2.835808630829511
2.728914222012447 1.567612587402627 -2.997885433269724
0.429176784285138 1.762034732420877 -2.783302806277136
0.550964007129624 1.963408344613373 -2.860914393667209
2.810963744943403 1.893956194163694 -2.942440514164876
0.668726437214236 2.250495160692630 -3.033761299067997
2.819225499575258 2.111224267788828 -2.925190835053933
2.899550342831392 2.130915877179227 -2.813770840033059
0.726472582763128 2.430376342435437 -3.023942511884362
2.762865281856896 2.395170613600409 -2.944260206659099
0.817125983173848 2.717571896576349 -2.890073191471238
2.699835487090674 2.692161036262588 -2.910331574813032
0.888345925032690 3.118647672217043 -2.780616048355110
2.558649839390625 2.896776081827448 -2.954264386671061
2.604623252723081 3.041367494687234 -2.834160748183898
0.844145053441102 3.216228021162851 -2.997286396648842
2.228887230868458 3.363407399890014 -3.037533285112515
2.403530281220767 3.185919939982264 -2.971420840522320
0.872884114904751 3.629957975334779 -2.821307204168976
1.883962008891751 4.061923413782063 -2.978246547612974
2.182796543722068 3.769538641822413 -2.867037200113585
0.788139310670144 4.307648572149874 -2.968634399858449
0.811165281796860 4.144735575252603 -2.969365777751639
1.788325510523874 4.202567857675589 -2.969704263626837
0.776034444910098 4.507452867729701 -2.897583799902449
0.815956770671314 4.472561124686695 -3.057189712358734
1.646501908120808 4.378116402896945 -2.985376275932663
1.806806304897365 4.530510680923618 -2.779603856582562
0.783323587681609 4.715902841234152 -2.916841013725727
0.893484066182194 4.840523870215100 -3.019745360548946
1.269521707591453 4.838944411432175 -3.019262878476743
1.484208235719404 4.814496792207234 -2.899622545778555
0.788705416606144 5.029256802028724 -2.803136331827183
0.939044081367966 5.133004074271009 -2.953163014843170
1.246749025635655 5.100811357747602 -2.944921189337290
0.921975156089544 5.365950892047595 -2.884343665834884
1.187796013783084 5.374669163099250 -2.914357154346594
1.450678984300126 5.277636987587261 -2.793882685668419
1.014118620508611 5.662298363145563 -2.877236663292926
1.198581701295429 5.788598178436743 -2.889338572466313
1.407215007914070 5.738710269108658 -2.792254583700917
1.004834523981388 5.972336273248056 -2.853052357181038
1.209839517348236 6.053430556430157 -2.887844246767153
1.012906243077917 6.344882387984514 -2.870312405375405
1.179079956725312 6.275013935288417 -2.919828997108651
0.967945897360416 6.632966614140088 -2.877892561631715
1.184877934500137 6.597028307458291 -2.922350532556109
1.457965770461768 6.495408494155211 -2.794980383411633
0.968552030239123 6.896904842842437 -2.906762719429888
1.250545030544850 6.922062712905299 -2.901296369688706
0.778527979378881 7.221440804440808 -2.804627193742808
0.903567707332383 7.201595786551824 -2.895911522324234
1.286247959527798 7.275320476878640 -2.854728422653961
0.759853658471087 7.511759355298534 -2.798051769753792
0.905190044574433 7.487347246040144 -2.861179614335336
1.252885600621578 7.456174994165137 -2.829616313670002
1.438472635867863 7.393999943653859 -2.777769634753480
1.015192844933055 7.696014825559788 -2.810054893057857
1.223920638618239 7.688841156671841 -2.785151427549196
-4.673203276129021 -7.183108469645567 -2.643723426337671
-4.515983706411800 -7.291922437642064 -2.596486548478592
-3.831470909586879 -7.324083816202482 -2.611952737818570
-3.448130274690065 -7.316105968113854 -2.753091290433213
-3.230684434745707 -7.322604644556284 -2.619340357193016
-2.713958271030216 -7.310081285706733 -2.598106819821177
-2.267427907347827 -7.315613603655161 -2.626360679435655
-1.971380703868575 -7.320790834308740 -2.508617696021455
-1.697175674010697 -7.315867857737207 -2.578835169442956
-1.406268700554489 -7.316814435553098 -2.711098209724841
-1.131136762222930 -7.304937492934912 -2.706247898383588
-0.646666761030131 -7.309815712474925 -2.571646878440232
-0.304185176483335 -7.307639800770875 -2.652687537304964
-0.045214720182914 -7.292978161751241 -2.760416301920282
0.460680167680663 -7.308729296769506 -2.516657112862398
0.621751260571801 -7.305592519142490 -2.591160907071240
0.863893963707677 -7.294810602205934 -2.645624684748791
1.238676430696719 -7.294850831577550 -2.627750299906846
1.619251630302665 -7.300933000420679 -2.595581053609545
1.969293924435359 -7.301576262134897 -2.655063742291862
2.182433291794602 -7.306333904895961 -2.550659244957990
2.403834079778003 -7.296553528597586 -2.635915860321703
2.706279534718510 -7.314021240511336 -2.556773812547817
2.990934626309082 -7.321999051487997 -2.592609572681029
3.364208714534342 -7.286561918408657 -2.678127597313916
3.624620933618794 -7.163909289041269 -2.593155786603019
-4.744650182403924 -6.916837916358208 -2.662154317486963
3.640813070134207 -6.995129357861403 -2.644924233494297
-4.754980335373067 -6.592805061445904 -2.663458914443052
3.611416421737297 -6.501175950325641 -2.588193545570998
-4.756380903874357 -6.300626891803398 -2.636361834822352
3.426644229196713 -6.273470754673443 -2.653402165330636
-4.745518453970638 -5.955326356510133 -2.616366167090951
3.206525313275288 -5.998558123322206 -2.594469995558415
-4.735420733247277 -5.571264821665320 -2.492233133960077
2.896855049157085 -5.641845324342488 -2.774044484010602
2.950316893869953 -5.698422527776030 -2.619579443084209
-4.689293008358383 -5.380630224976180 -2.624933056310835
2.988921945404070 -5.349624438826615 -2.653591782737807
-4.650285102894143 -5.046282173217207 -2.592999471000395
3.096488592579345 -5.066152810733688 -2.668488996149716
3.204520970192068 -4.997025427102281 -2.477764588501803
-4.615762772365032 -4.723879350094659 -2.513873938051574
3.154517123080841 -4.809382685811231 -2.716430865293849
-4.560451431598040 -4.417205914378047 -2.630475357378234
3.353783740490958 -4.522493045609642 -2.522132315494484
-4.532454201231459 -4.215864775156181 -2.558294660932323
3.365390396657598 -4.143051765026151 -2.624957067753118
-4.490114346308719 -3.939315790610237 -2.618247446893473
3.387795299026025 -3.873393247952289 -2.641384642583594
-4.445930731781522 -3.565216963154893 -2.622643470653595
3.369883431097981 -3.552206398409984 -2.641123819683489
-4.397162824488478 -3.132933289595428 -2.611243416804099
3.314049999187181 -3.283422610384994 -2.619958976561521
3.034930639845950 -2.863802653132138 -2.701167567074371
3.252357181567761 -3.021857916294870 -2.513416495953296
-4.330743723719632 -2.656903217585339 -2.600273230861819
3.009037323968534 -2.707818386144344 -2.521072100837369
-4.295002413540997 -2.358493688994635 -2.589992362584102
2.490370130184560 -2.348134403131842 -2.680063030897859
2.690579911109656 -2.484528339285638 -2.662206274239972
-4.225415472429226 -2.089903773882302 -2.700519592140416
1.684807692292066 -1.990060708342953 -2.769851574042779
1.995473373573988 -2.067633179720404 -2.633091528340101
2.141162372841089 -2.115666641197699 -2.587279886069336
2.407764905038863 -2.224243822477687 -2.515525791677594
-4.184252363738207 -1.844011611665534 -2.660609680331973
1.587008048736594 -1.773282215779029 -2.657784234991379
1.877568767545964 -1.878849987700806 -2.484717032957833
-4.086832858054928 -1.499605660323185 -2.714759082541853
1.384499812394281 -1.358796476410653 -2.660687689685420
1.490001191008105 -1.614676136810470 -2.661709233673509
-4.016882961911423 -1.069887685451237 -2.517298704538127
-3.959254238624331 -1.102311816734014 -2.712786210406170
1.572005276521489 -1.282221129347378 -2.481072229622287
-3.857536944556083 -0.774081115962350 -2.620047191705737
1.226635378962958 -1.029216384539413 -2.704831705744430
-3.809867217461817 -0.604864503118231 -2.537986621779439
1.152068902642808 -0.599698937992769 -2.648043147894803
-3.561954865352161 -0.282018822900216 -2.663761302745564
1.200330231594014 -0.209952245751092 -2.554812445121729
-3.289588844767035 0.110800727791622 -2.635725884165522
0.966848793408666 0.016762511926217 -2.713059540038963
1.194552455099584 -0.002543634024805 -2.572954036122005
-3.182394344020514 0.373192350717851 -2.500989034425015
-3.094251122795524 0.302338629743789 -2.692871706545362
1.294514847981677 0.190334467629917 -2.647234403922253
1.472668343980380 0.258214431474856 -2.625329634784159
1.889853731493791 0.385446919965168 -2.603310239152403
-2.989798157233488 0.548031574924734 -2.553873512370924
-2.766662236371386 0.748613217753508 -2.572252842628182
2.272627542956589 0.591831340383093 -2.673161912291409
2.458159392708785 0.687018821069074 -2.636974108044596
2.616173461588773 0.757372532519357 -2.512271369116978
-2.631445083561276 0.798300648238911 -2.625168197730166
-2.423810756855133 0.882895223233389 -2.667684260269540
-2.181748178454790 0.984913198453693 -2.691125811196395
-1.430316364117160 1.062314583665878 -2.739906893237523
-0.210424873578578 1.066422358782700 -2.756887250808048
2.630619665643253 0.893866708094494 -2.677692021586262
-2.321389300335747 1.159002686714657 -2.494360540323995
-2.014295014919762 1.202076059653984 -2.586334310276539
-1.739545441178384 1.164861453890503 -2.665552598400136
-1.421315376225886 1.335126207631989 -2.601413199134802
-1.129875549155604 1.180672462881284 -2.692002296878345
-0.883219734005503 1.246096938208363 -2.667111956635146
-0.441381028007858 1.260369124252229 -2.669989581400548
-0.178637286744094 1.250357800186729 -2.701245576427818
0.038445820840329 1.295714313671792 -2.736839044902831
2.810710604220350 1.155429991929894 -2.663388698602557
2.909295499873620 1.316424151714612 -2.627579436413380
-1.329308205503551 1.602170335118373 -2.478309317945136
-1.137726956774588 1.515603927123271 -2.533162585710422
-0.486503167054228 1.559108541112573 -2.585708936530143
-0.184907798816880 1.446338969432290 -2.639319955442951
0.079243450885897 1.540266699262422 -2.637983123032817
0.237300421199084 1.473149099328516 -2.770339151057801
2.916654654369810 1.622783583083218 -2.754169170386350
-0.793744081849598 1.704239005284827 -2.511026114195219
-0.492691067889731 1.854712739048490 -2.503651001553462
-0.195539338065441 1.875092404296594 -2.510782214351809
0.167162664281486 1.735410385028625 -2.540762819540574
0.335635171595164 1.820721189165041 -2.586122570602899
0.507531427467172 1.913064329217803 -2.710499667930178
2.984377387183619 1.828189855772472 -2.687044701027456
0.428316232007444 1.985349013393664 -2.503614334930624
0.618481629527340 2.119510033862967 -2.598185482345232
3.059461018756040 2.091663774975844 -2.558448601369096
0.760467515137232 2.353891424863708 -2.645204725736612
0.836892521624479 2.476635221013710 -2.557713487537951
2.942683874268311 2.451721549714279 -2.653739550217496
0.905058000197857 2.716682285628936 -2.585799007272681
2.932603150825578 2.644394150040196 -2.534989682041948
0.949858044487538 3.104699584976053 -2.606217936981273
0.931112641793366 3.441520518394489 -2.634664407701549
2.534104504358061 3.350354007935839 -2.740465873675966
2.642262134857502 3.205811805543547 -2.683019073248339
0.927920344664562 3.707739572643091 -2.576617358328801
2.477688934141762 3.568438878830242 -2.674412696896168
2.625279847464722 3.484283449734588 -2.476083861765896
0.890290740521749 3.964115420034143 -2.561920574276954
2.410257270480703 3.869863160902324 -2.550848144867145
0.848044976804577 4.242974463672144 -2.585499192066508
2.122691561586569 4.258111519352466 -2.618910637733666
0.783684390219290 4.483033416487284 -2.720680148338688
2.018269547404539 4.407088601733739 -2.626696023164361
0.785319840356146 4.781853106531027 -2.639860231450311
1.662762738886092 4.802423675734471 -2.767952851616032
1.818265032765796 4.800835506242853 -2.622075694679106
0.783291597166542 4.997891215364573 -2.705298054714651
0.807476018325526 5.198419045842017 -2.633650657226411
1.658847129531471 5.166257518833734 -2.654962797743159
1.777620192686040 5.193672425334983 -2.538179381333102
0.840170732955580 5.439981930170296 -2.674520395822762
1.461143668147595 5.482480494417495 -2.761394573355509
1.710419847911770 5.525407609097101 -2.555768597824960
0.855196353771353 5.754243606366573 -2.562258268430200
1.365041158940746 5.770904768037344 -2.584996654805460
1.454638002284821 5.716937507235174 -2.530267505950140
0.907918701906565 6.067498540064043 -2.653805201286120
1.347115214706242 6.005916171030548 -2.581361806098891
1.497671170593844 6.038653227040489 -2.549330890158056
1.776262265834184 5.997649736917107 -2.520426575293199
0.902672591443283 6.241668115948572 -2.652048654802786
1.357608664220562 6.340307303553970 -2.578994339812229
1.484831733249719 6.318965249523489 -2.543851467070676
0.831726127665100 6.644766122640307 -2.662264688475140
1.352390336155988 6.595858617448454 -2.586569852505109
1.522409438369248 6.619157031408689 -2.581962085890321
1.822027035691343 6.697125565226407 -2.557084835567854
-1.035366215432290 7.021421482127456 -2.503393889850000
-0.825988294319098 6.989626918243283 -2.532700912847971
-0.541489345141973 6.903958050785757 -2.540473816287289
-0.226775589526568 6.993109579397474 -2.560811854279708
-0.048255600488663 6.885533270740271 -2.490370039021108
0.709952265128531 6.996850465614120 -2.530220683019155
1.384290037004007 6.798908003166405 -2.618560356438469
1.519644656248989 6.906640859994555 -2.572278113403194
-1.190310753568442 7.211659426119340 -2.520208616714327
-0.921390133723207 7.295443883998510 -2.614053609126488
-0.637582753669942 7.243017367718407 -2.633054713269398
-0.309976535957479 7.209332505823866 -2.627636069274160
-0.003640930471325 7.215434826464771 -2.581553324088586
0.272254326785868 7.187167049862879 -2.498709728782477
0.660491618447619 7.194299977234076 -2.577559838983597
1.592464287153831 7.301881437032220 -2.712483079864328
1.735230904624009 7.250582901859941 -2.629040163412260
-1.409993183281970 7.511259135473614 -2.499810506818905
-1.205889342684096 7.576852532101249 -2.592598142195367
-0.988050684945680 7.425451296072444 -2.631670288473507
-0.545287222968408 7.576908385610734 -2.681232911415790
-0.261571472360271 7.551754080320937 -2.668153652421009
0.068914411275747 7.527884665533055 -2.601387294982230
0.366866163760475 7.550723436478679 -2.550106024296737
0.630815357361997 7.490260340567467 -2.663309464554218
1.614540414611610 7.641881529943342 -2.655663991236982
1.862271400541298 7.539260707940267 -2.510568338089244
-1.367068221096416 7.729918239824664 -2.534218124259766
-1.239341153800080 7.790465299704336 -2.579828434112621
-0.913858297247194 7.720058109910419 -2.652236478464914
-0.465777840950749 7.842525446651793 -2.669816454077129
-0.256014252282365 7.953892520008532 -2.646227902651225
0.381938892032310 7.817432858562180 -2.575806506396557
0.645343646900903 7.800291698964642 -2.675885138905786
0.839789889956024 7.755302453746523 -2.773832426234393
1.198764885961753 7.889527566581860 -2.710626219735721
1.529890338671328 7.859922812833166 -2.630386789670337
-1.113156113450428 8.061704242239488 -2.554956192138387
-0.810249554697621 8.118557016161702 -2.592908806466395
-0.284350945805926 8.132987670302246 -2.615165260969081
0.016880873608225 7.996308306014599 -2.597483338785069
0.337558799332414 8.075035761166649 -2.525446770372005
0.673569845729732 8.083480826645516 -2.554300671104591
0.940168728584140 8.071613434173360 -2.590823027358161
1.321488839580368 8.149020262473956 -2.537998349160832
1.519496718054254 8.081258388906212 -2.544566301273940
-0.591802285450982 8.312999040823303 -2.558208561170194
-0.216173294507557 8.426196476364618 -2.515633441121567
0.049950975778769 8.339400271073350 -2.500564844648662
-4.231221639577979 -7.333809415238399 -2.365997448146897
-3.664989745564750 -7.336580862667831 -2.260645185414208
-3.178554888421017 -7.334609920354402 -2.229029278536452
-2.891208993704077 -7.334623317774284 -2.308719284494749
-2.230836844473731 -7.338086272474298 -2.192356792007997
2.536259818920739 -7.334753989008101 -2.233811600755196
2.936987038972676 -7.343613506083326 -2.194315264700704
3.296054480886794 -7.344230455413340 -2.388252715066657
-4.669739075085467 -7.252132545933072 -2.320124534019546
-4.507498110954391 -7.313860991040269 -2.421173738468032
-2.586685973770573 -7.325955409781765 -2.286161221040845
-1.382387150153580 -7.326873337159567 -2.289432640882088
-1.194506706717513 -7.326904436987440 -2.367408073991090
-0.773579443335018 -7.322755616035741 -2.354564513095139
0.037419823416267 -7.309982382316184 -2.351055725116577
0.599069057590172 -7.320614218460475 -2.326415791681570
0.920149915356339 -7.326387764190732 -2.251647686047779
1.103165573784243 -7.300893624624291 -2.408776114960764
1.534615044562182 -7.315927904898899 -2.293641434771546
1.798255559382881 -7.306623600905953 -2.353274686701691
2.194660200256270 -7.317611155248524 -2.258359385177545
3.673985131247205 -7.275248971292647 -2.350719663889853
3.886199878704031 -7.097550814380789 -2.289072135240139
-4.737574934450961 -6.976462372752307 -2.275919283215919
3.865676961265488 -6.931303789754898 -2.360520872372053
-4.767409541163771 -6.527461985031872 -2.452438417695448
3.750995047066778 -6.608517822690876 -2.436776277172693
3.889631770688139 -6.633348548745325 -2.192812972299416
-4.799690568703975 -6.283200077276659 -2.263151876075092
3.643776497766007 -6.299808591499490 -2.339995301427910
3.300589711633013 -5.925245920131658 -2.250864697779934
3.003415054035861 -5.670794343045047 -2.336035391518956
-4.736585084082208 -5.304588251094509 -2.255644051041363
2.994939527054946 -5.460871492083903 -2.279555179679520
3.145223433110295 -5.184999912261295 -2.280425418180454
3.250336434995377 -4.957912531884997 -2.323108558792717
-4.667412906307315 -4.890629278977710 -2.275481287788053
3.357647492057815 -4.696416519674087 -2.330740263570406
-4.577690348238717 -4.344224675704167 -2.308642091604564
3.440376386646329 -4.467414471096129 -2.354977532169594
-4.538244187562845 -4.065758969427755 -2.235436065749988
3.541330102005178 -4.192937596084115 -2.253528817402435
-4.492727177193606 -3.759831744020251 -2.188463301385371
3.494756365503669 -4.005897664463867 -2.432981281708985
3.535777335363243 -3.743096993443592 -2.372026658213923
3.521818188756257 -3.539206447687476 -2.368766297738677
-4.457918305171651 -3.428015656171304 -2.399938790841468
3.385267380320340 -3.141264035372887 -2.391193430174999
3.501775129043718 -3.231280297543851 -2.218995167723561
-4.399973128146767 -2.929749133008436 -2.392797520700217
3.328579593830240 -2.975049112597962 -2.316677426129200
-4.378485114021084 -2.682943496849837 -2.288179443999512
2.967965584938877 -2.548684278117347 -2.281637866123885
3.228058269992326 -2.776187089845920 -2.180764795068099
-4.354585972548086 -2.349402147905260 -2.263452854122880
2.596851338936201 -2.310050548519865 -2.423139336658295
2.737082986427072 -2.355034631051097 -2.231323911421127
-4.313593912910364 -2.100955494814840 -2.311802509554201
2.205233102597864 -2.050167546076775 -2.355579488265169
2.396352307344711 -2.155126199293454 -2.313628232742969
-4.247941396920198 -1.832217799852162 -2.428147670752627
1.892469754007793 -1.780411597720365 -2.363643436115926
2.063259345178603 -1.921589204494352 -2.298731712087768
-4.176638695376205 -1.382455800356549 -2.298158629102079
1.848680553089212 -1.580265649377538 -2.298674312246348
-4.073509365209040 -1.116460011698020 -2.323266433097932
1.797482071778443 -1.168443856442487 -2.246294581785265
-4.005696301868928 -0.959316144206999 -2.417974241617740
-3.946550218722175 -0.803928489191613 -2.378175962604333
1.585550068023229 -0.923479938730190 -2.388237684720251
-3.843894622806551 -0.525829857375209 -2.314560930683413
1.509784578291498 -0.570785289468354 -2.369881660777914
-3.671348287221921 -0.149327213629939 -2.196167968289071
1.530410704108696 -0.280850760868641 -2.320170404410060
-3.578024977721936 -0.082615856125417 -2.374149388470070
1.327113652919808 -0.048981874736859 -2.458800818997127
1.589721920661298 0.069921674091696 -2.277397927872194
1.731869154256463 0.161797245781052 -2.209034241708480
-3.392232750413232 0.220522256556633 -2.342997974964215
1.604573810465665 0.205065716327928 -2.379248424210371
1.823844557135530 0.261948662278854 -2.268066415859588
2.113430517775829 0.373622033065235 -2.263725552852244
-3.127359227619697 0.609386116970099 -2.242729235169857
-2.998488295293902 0.650412802072504 -2.415014710742417
2.411204466829368 0.557949178904330 -2.366573574313833
2.685883985548772 0.726935450143442 -2.254875350880595
-2.855699336419930 0.922039849181977 -2.276264498727697
2.853349804264354 0.980954316546208 -2.339001981090295
-2.621793040442835 1.129967323310991 -2.309413204043151
-2.392205463999777 1.345728502650999 -2.310040247828036
2.881878292430452 1.090963388827158 -2.469945468293618
2.993813104649712 1.226784180141988 -2.325494808751865
-2.236427799329126 1.481013087904121 -2.294569271044387
-1.995237537699838 1.472235996506350 -2.412995151752957
-1.700259678421444 1.501777270236457 -2.469237075078307
3.115081254790327 1.535031373536586 -2.327811684075089
-2.001163279604444 1.742746307433827 -2.211271351045181
-1.781654756565630 1.718931261676770 -2.318884920116685
-1.443388980069948 1.820297105422879 -2.349801860218605
-1.219881568423832 1.836078746477555 -2.405251183276803
-0.858019038757664 1.925973281398612 -2.436479826784810
3.154949625937674 1.791237693464963 -2.342651905877209
-1.670095740118490 2.003190071689750 -2.187934678535471
-1.183337674859075 2.077035128494371 -2.306732829379350
-0.861084635633059 2.153764304658519 -2.357589286807455
-0.587994671918686 2.146526060948974 -2.405209209642765
-0.093619635332257 2.095278220722846 -2.444598589009991
0.372392976767216 2.112610795596150 -2.415448846525773
0.606526261901683 2.237301930848929 -2.416350296190478
3.177508505854839 2.076604221452094 -2.283985198000897
-1.128042886029112 2.408132691561170 -2.178195607855738
-0.849163529774815 2.434971174999752 -2.249084659421847
0.040289271178398 2.409046709811842 -2.311886889795218
0.368321991979787 2.375632926090799 -2.291909122402294
0.702310868825893 2.441638573045013 -2.334493237684691
0.857807267204643 2.517375327511305 -2.437178979120478
3.149420685178191 2.315738962596448 -2.284671769379944
-0.767633586744605 2.605017611413356 -2.192996528085403
-0.257903845165368 2.678765917321480 -2.206018634651874
0.644719671038576 2.621131256119759 -2.175879450030531
0.923505303672496 2.730702523834384 -2.305885552582221
1.020229037743525 2.997220806566641 -2.401932965245885
2.897539468042079 3.122693247678120 -2.178295513269382
2.928130045511170 2.882137637786836 -2.353651187601173
1.054476677867740 3.327899561092222 -2.289761805468383
1.016281969812022 3.695209978983179 -2.264281787005171
2.624865603695376 3.739770242857724 -2.195672375089298
0.969131728601520 3.950161290965018 -2.270160426401978
0.913423445663932 4.265906108550837 -2.312347610117198
2.288177753788576 4.282461422769783 -2.407512007160055
2.360387100672575 4.208593690553671 -2.330985425220675
0.857276677420521 4.492416761546345 -2.336710777351319
2.176177426577902 4.576891360975731 -2.346501542526164
0.874773633563822 4.726932963002225 -2.242233641970084
2.067787598875133 4.767648724049837 -2.377773594664245
0.831974926288080 5.114783641990706 -2.336372647750999
1.929022245178108 4.984761372759542 -2.428120504793197
2.080811709487790 5.096198327949077 -2.243346073163972
0.793421568188734 5.484766034870392 -2.349831290007988
0.799981590711680 5.374307870683612 -2.245910918276260
1.685880376569903 5.552885457493424 -2.312490454076006
1.845706919666643 5.500546933685739 -2.305106917017868
2.072116858207639 5.413448822547525 -2.199255238552864
0.806640071281578 5.703557666053582 -2.290431695018518
1.640751511693308 5.739617291277862 -2.368346549979230
1.772836799521979 5.691675474743001 -2.266310358900764
2.075871624299731 5.670492908006205 -2.199424098000143
0.824510992339988 6.045837448097561 -2.317737813975491
1.575361120784663 6.005418957435565 -2.398052188122617
1.753771041031830 6.008449022253953 -2.252076997275499
2.066262334166622 6.021015430984567 -2.251136802717835
-0.731910795437221 6.456179809602647 -2.307953367731464
-0.463342108369689 6.338396745264697 -2.279799710426360
-0.400287689813736 6.186603829542137 -2.206778427940697
-0.013595584564078 6.299617078394032 -2.221423403687402
0.285803608835547 6.401596271609411 -2.182938888285793
0.773911102306504 6.383452528115083 -2.206396323134282
0.807823015211693 6.271717972066705 -2.295865629143927
1.604931361995086 6.314302231555599 -2.393125590483503
1.810850056570377 6.302278578972043 -2.302660618129792
2.032399705952858 6.251721376536143 -2.329231662134824
-1.081617968513008 6.519103519812816 -2.258820464248533
-0.871231863719643 6.736202511318874 -2.417385571606148
-0.492752896425811 6.665420490663964 -2.432511741109650
-0.228434420202278 6.591420788295208 -2.396909637917112
0.018887332073532 6.621481406883607 -2.369227265473766
0.369655449675106 6.652662856340965 -2.282129772868325
0.677025220310602 6.663780874708875 -2.293866407512075
1.623060616977718 6.562006307598425 -2.411398557844958
1.834789516218625 6.603536574251377 -2.262610440318781
2.174513523933445 6.597447771644248 -2.232161528503564
-1.439965252718455 6.873666793696620 -2.269916793764725
-1.260479461866047 6.778546374333987 -2.327077906274737
0.411954580400012 6.903398921899448 -2.367191265883177
0.621003541042724 6.914026997364476 -2.391955512035085
1.596956361984796 6.978791825160537 -2.401269307855256
1.843488366313160 6.950570195698393 -2.326613289196282
2.124518175462532 6.802434493552956 -2.299554966839195
-1.700562586291486 7.145644882896600 -2.215406885912896
-1.412551125568501 7.143333846522761 -2.395841184403449
0.445190634913798 7.139386320877007 -2.447111662929102
0.592951224147299 7.114621579898878 -2.449177760324470
1.693947553161740 7.106178310639189 -2.327374356662619
1.850811084671357 7.229353181160860 -2.273326332625472
2.182148717235979 7.200944756065965 -2.248841724489563
-1.741801057015680 7.578991938000982 -2.282197242423303
-1.575498599482591 7.484259326316939 -2.391816094747845
2.102888913192596 7.443916688979863 -2.317652914166943
-1.730269602063693 7.769388226382986 -2.301722268567032
-1.469446739070636 7.878353635943851 -2.457878475295319
1.937693456135640 7.794045342658453 -2.417097248738915
2.204166727354321 7.754754310002279 -2.186397500885734
-1.702408349942130 8.121402056620575 -2.233276631759035
-1.495371563007555 8.154411295166163 -2.365499925124869
0.419414926858015 8.239742320022579 -2.446291636918756
0.570741567834286 8.214427134358287 -2.459079232969323
1.054120477213897 8.253090752109911 -2.443888191748493
1.811546156181721 8.117473962800442 -2.381211543321275
2.098187123941016 8.020448972165154 -2.187771460107090
-1.176532985512078 8.421118817116984 -2.397536904373796
-0.871349991108806 8.552211383089475 -2.425960328562916
0.177041275955014 8.562593047468029 -2.371777117351614
0.358577206057223 8.395008767355588 -2.382840380105713
0.645505498371854 8.398019698304424 -2.325830573082857
0.875243916402486 8.469315385686759 -2.239477373334925
1.222416898850260 8.397793203973270 -2.303169338362264
1.570864974240808 8.335597506838001 -2.329616092624469
-1.168422635332622 8.760408438542674 -2.211659839109822
-0.889989327802908 8.811480998951328 -2.271331019469663
-0.487368717076736 8.749299812594936 -2.348508211292615
0.053314321960872 8.787620045691792 -2.281946192341026
-0.111879539281527 8.921592017804075 -2.218371167119924
-4.635791952202124 -7.332031009806834 -1.989918734394213
-4.491810919854293 -7.354920223337237 -1.933562023756680
-4.193768168827867 -7.359623756851241 -2.098216202783181
-3.665955547379254 -7.344686932600490 -2.046242972061115
-3.250390517803017 -7.343887021275951 -1.962198025289539
-2.942457984401165 -7.353818257717884 -1.897069567377401
-2.657434185424060 -7.345168979932515 -1.970054888367589
-1.952105045397979 -7.343731151016923 -2.001363211267532
-1.560944733613483 -7.341289183625502 -2.048646083223679
-1.161818857801250 -7.345046176435581 -1.883195184501752
-0.957251538225225 -7.344362722461715 -1.993527056666753
-0.288667290174113 -7.332064187904828 -2.107018938549759
0.453095149756750 -7.336153852382028 -2.040423815724111
2.199136719871590 -7.333871763342009 -2.046693214437905
2.637537633082464 -7.347166383078012 -2.034961305384547
3.071231116022860 -7.357175406201592 -1.988190281669470
3.312119991372731 -7.372376170757628 -1.877180373877702
3.675916165826060 -7.352682297537276 -1.983219876004834
-4.710038758414059 -7.261721770862995 -2.048250358325583
-0.749674957738853 -7.325409195859773 -2.084174073819246
0.753318340147131 -7.327832310372246 -1.989440509594732
1.387242906281356 -7.322742033056025 -2.020793218406531
1.821753297826918 -7.325761722428940 -1.952686896307650
3.935972507660949 -7.217006138624590 -2.038999840175420
-4.758344794914162 -6.965244019090477 -2.068894038102906
4.052422594991906 -6.922999170801809 -2.039633479286912
-4.783401161724536 -6.723669388824821 -2.119977249645927
4.005162831420193 -6.594955365893113 -1.986564183748156
3.654926862305329 -6.187645670578537 -2.112716738756522
3.873323510829751 -6.357480346111664 -1.951023537972035
-4.816091311582720 -5.989854921849606 -2.120817019222418
3.368102502052699 -5.855807092877931 -2.039650179671807
3.576206146686381 -6.007835941741773 -1.953517956942684
-4.797286975085847 -5.743646120335214 -2.093081019987573
2.758316956771853 -5.551904980884193 -1.999966564264029
3.011994273500415 -5.651936933962042 -2.059917742039966
3.289082589760352 -5.785011043899708 -2.001072092632161
-4.779730491348386 -5.474723978899354 -2.014243698570086
2.764556722817514 -5.459827643803986 -1.971680503833340
2.976041698092232 -5.482816881506325 -2.027858178922398
-4.743400845165857 -5.197741266801684 -1.966510955356814
3.148460895502250 -5.172575642362126 -2.044565214282523
3.234201710692039 -4.978702432810072 -2.029582148521595
-4.679648647416994 -4.830313352424995 -1.943308034374136
3.337363179822137 -4.798533039535931 -2.070153878027473
-4.623414369156730 -4.602359556080304 -2.151569330641232
-4.581090323931691 -4.334528209561903 -1.959919127878633
3.508448825519854 -4.448770124286559 -1.923615979640139
-4.553499061365942 -4.138925359702179 -1.941972448926074
3.581356396940361 -4.218118510653845 -2.018934057336005
3.650430079556335 -3.893159056534247 -2.013759337925488
-4.485278805530107 -3.628724518821017 -1.975389993326382
3.638062479629913 -3.583829987464791 -2.062009322985620
3.579859720816660 -3.297792932838770 -2.003797818118944
-4.429645258670526 -2.998023201195602 -2.009065614341280
3.367518508148879 -2.907879756315666 -2.038452910522649
-4.390880213914635 -2.573583883981500 -2.060284729905386
3.203856146425352 -2.711807106072842 -2.050334269464840
-4.371826707675118 -2.322116168375406 -2.037080918235514
2.868269111666947 -2.422689820085994 -2.052999428222402
2.996262494434420 -2.529434523799323 -2.081085541748594
-4.344912144705345 -2.089463551736450 -1.973234456091906
2.227112239737806 -2.002926462194833 -2.162678129778147
2.426181322521245 -2.102232517579868 -1.986884732172910
-4.311096240457324 -1.900000060260133 -2.103521877952591
-4.272642973331454 -1.682217874563975 -2.052585518460752
2.089851726797098 -1.832382750172311 -2.105138598917053
-4.229706506436304 -1.504715161638020 -2.170291649692283
2.039788921141861 -1.476982836487852 -2.016026520325656
-4.163335948119554 -1.188130975284947 -2.038484270134286
1.942385818947746 -1.132318400299283 -2.094611517483352
2.101819717439604 -1.139529700721197 -1.903206253699223
-3.985784618517570 -0.747369629672909 -2.117039763278666
1.816904025620726 -0.747116897181487 -2.161661187673896
2.059418479324381 -0.942046758641878 -1.919731841233055
1.853461168157500 -0.549472518048176 -2.094640279257339
2.033830594930725 -0.554688085363081 -1.894185744913605
-3.867898531360796 -0.416036368507281 -1.941531929884490
1.851533238613170 -0.327257345073326 -2.061764792238780
-3.577211854537345 0.090035766107990 -1.979204064340838
1.843853189313871 0.054846174793034 -2.070181229546736
2.019078588272821 0.049926785711590 -1.875754086783673
-3.450010663805393 0.247284808911889 -2.083250356974679
1.886650177068502 0.230701920501882 -2.105198633708090
2.096459357787652 0.330659921801280 -1.978407047749680
2.310059488766169 0.440197560772606 -2.088303151204801
-3.192980680893958 0.625236118266948 -2.024854752013175
2.491350405665974 0.538125017940481 -2.004828095789801
2.703551805185539 0.704634770547420 -2.052563684253833
-2.938872226204217 1.018537159611313 -1.956972066624032
2.804806535704142 0.808126264024370 -2.090525786874592
-2.651218079494068 1.285795831375657 -2.085487429199413
3.013262595571089 1.081601598398203 -1.975260992131054
-2.638991653487964 1.418046290700921 -1.958034136879468
-2.426431158581174 1.617057911789663 -2.006910819346132
3.141368427596861 1.412894852864014 -2.065154859036716
-2.183981725042712 1.777666441131155 -2.086042958224978
3.235855568364247 1.759527967536060 -2.002249482137965
-1.968174229968593 2.062304683888966 -2.004566456426434
-1.784085516143188 2.198875013219227 -2.013028355893273
-1.490092979573642 2.212457918710495 -2.136468397274907
3.237099858374878 2.160158214019702 -2.036989214566453
-1.404741320463891 2.423491083009310 -2.054016221878787
3.202343017329865 2.378004714753692 -2.046650684124370
-1.409704600630972 2.704205056953664 -1.901202133287802
-1.159838860168011 2.702928071300604 -2.010606614523559
-0.702346586511857 2.831069048358589 -2.084483142275716
0.301412679246300 2.730464024665709 -2.147417986075816
0.712910237301264 2.739955533788008 -2.115143304681872
3.117303618305697 2.612242272143186 -2.099301950473203
-0.960697681204444 3.072653550407316 -1.885650883320754
-0.542214500595457 2.983820640398098 -2.019510999966203
-0.224742596005260 2.960189076203096 -2.064912517895895
0.146701204259360 3.004347269033284 -2.045224916597871
0.369378025355349 3.010249110831506 -2.032169396890954
0.659638533097572 3.004083774071596 -1.975451524966731
0.928597774129210 2.986862077383344 -2.064234333821263
-0.538965607717840 3.170768979685184 -1.939912066773537
-0.169518653919221 3.296608532368638 -1.906498456241670
0.100487156936539 3.295348952227835 -1.915887585819232
0.270510658154887 3.276891983736795 -1.918687176489876
0.663727529559377 3.190377161375038 -1.886704937391441
0.999512207806229 3.305852856001432 -1.997230058988062
0.998669768642286 3.622047423611953 -1.960117528451194
2.743920866242716 3.523782309402798 -2.137696654916039
0.992280184062258 3.913938067057438 -2.012206548508538
2.542642928699690 4.011569452379487 -2.072520396791133
0.945339692263653 4.246225046381300 -1.998583576938305
2.434492980377300 4.276714783215193 -2.056031475880139
0.917719093925503 4.498836062914962 -2.007030010611665
2.374207003181497 4.508533790864086 -1.979737511746374
0.889723026400538 4.857687191547385 -1.985762837427580
2.281839846384743 4.855038757916031 -1.950654051234208
0.838661438763292 5.153690936913942 -1.980139879686462
2.161523593441874 5.031163206632523 -2.116834905223945
-0.529336833802352 5.500548381052431 -1.886747541928908
-0.228800195743461 5.495898882561558 -1.896985582997359
0.819910902247095 5.349981756036781 -2.050229057039997
2.150137939035355 5.345523384173048 -2.059520631628457
-0.784441447895140 5.791352294577848 -1.955489183781189
-0.550382287728299 5.704999985517111 -1.964756301583768
-0.229516234023858 5.762217656663970 -1.987155921682305
0.053092652185355 5.675279683660921 -1.902630647099817
0.791553240462498 5.812477205223933 -1.910019788064887
0.806456564978212 5.713548009487390 -2.001841671109467
2.132119411315777 5.660645841504146 -2.109479313476533
-1.188449625563694 5.971136020296798 -1.910300651426867
-0.878319915301026 6.030937278098992 -2.052445866131058
-0.492096905307107 5.965128075386537 -2.084053014584735
-0.300492498711088 5.963404818337096 -2.082789797471221
0.383752479608054 6.048260772911176 -1.973137816531309
0.694239819335273 6.044759286712011 -1.964203825017442
0.808517639887456 5.934711515928061 -2.056740537110846
1.938790545242604 6.087957684299463 -2.111693799358494
2.170721590206968 6.056362704859579 -2.010150861019754
-1.459692229812867 6.271949031169729 -1.937532929941289
-1.121755599347497 6.227737842451473 -2.085769220360554
0.146781291882926 6.188799299252499 -2.120833051591918
0.439701255510534 6.295533054935728 -2.063573443922988
0.679095155701832 6.306151277173668 -2.031773010162790
1.989675296833919 6.328154584767973 -2.068129976937942
2.056586811544081 6.276398397196274 -2.028734709138708
2.342470185517096 6.308026983995896 -1.876409409886982
-1.494648918797133 6.601093205883224 -2.102210192610913
0.480242627427869 6.491772412131777 -2.171706803196381
0.600568047026447 6.528324321881286 -2.148044584517104
1.939107298350258 6.502020089940846 -2.123635079281692
2.093835879479594 6.628228585053284 -2.073206676222711
2.385540849282874 6.543582275977597 -1.885666767242389
-1.948405650359808 6.890743048588413 -1.896848788289080
-1.712136893194050 6.855302926758711 -2.081110258318240
1.930089659556711 6.887313086426559 -2.125050678129388
2.155509995142062 6.901140380402132 -1.974566466420535
-1.973065475808824 7.262127172811006 -2.016353254078150
1.944318239040015 7.307157670041591 -2.148952219509548
2.128766391538335 7.238152415706395 -1.969144698834788
2.396253960633659 7.252468635098436 -1.951326965409607
-2.041013366922994 7.548940795334679 -1.999064038352297
-1.900525201520125 7.651896787877283 -2.163749923368789
1.964065145260403 7.370279384963346 -2.098921627041177
2.142054336687174 7.484534630306347 -1.968882862778000
