ply
format ascii 1.0
element vertex 875
property double x
property double y
property double z
end_header
1.873741771001939 1.597934085497808 5.327432476518783
2.070185353888885 1.665539273570956 5.387042585659484
6.426887747807291 1.472370429345202 5.443840193939356
6.607897701044317 1.637824404018125 5.324438115012576
2.155335625664950 1.823408862608876 5.275629766124499
2.295457971242540 1.882853946203945 5.373596052021250
6.848425205013580 1.893230395027251 5.254777797726312
2.522917765957918 2.065651121943358 5.392012611936809
2.624433417410439 2.223068865217796 5.363008159887587
7.023596911932195 2.216231182072645 5.336928373417240
2.720709126747775 2.489746960068672 5.299676315939422
7.008772671324839 2.539539019167679 5.309546256885262
2.798837291364217 2.667708097526249 5.287410941212811
2.928842296238009 2.818893770924699 5.356502259839848
6.915478853049455 2.850023844837197 5.289701484701352
3.014316868844933 3.084832033576772 5.289243311342081
6.849535028365385 3.069795310455369 5.369048565963411
3.138953416747474 3.401778997272061 5.355002411797280
6.588034985276728 3.498098353164288 5.370639309688544
6.297570280093387 3.824968441940823 5.285895782235908
3.628072091061845 3.999440926431415 5.304502377865854
6.214057308367672 3.974566177464097 5.281636432720590
3.848505344681863 4.161433706208128 5.211435868077129
4.152814667796137 4.383129245907671 5.415919146374853
5.698454181666901 4.392415570062409 5.186769329342029
6.058135602722281 4.231127485853142 5.366435592210649
4.375002790043725 4.452931587697942 5.399732925414185
4.827212413377517 4.501029536944997 5.333401523941372
5.101237331900352 4.505114923762967 5.328365819990975
5.627034838938315 4.479704661588586 5.444299521969389
-2.124642036670764 -2.799748081900439 5.534463697511822
-1.780696145483335 -2.864874607524128 5.646980821072360
-1.420234628859600 -2.900351497262339 5.553260305762740
-0.886560027147886 -2.906582839695745 5.663037210852293
-0.631647103648528 -2.905940057574680 5.666115055054758
-0.278390871154463 -2.909122237827406 5.565121360974526
0.053250294126709 -2.823989193739144 5.651132786206600
0.218970974652768 -2.790092748062849 5.523367750241873
-2.167403651887230 -2.655870689263834 5.626963679636757
0.144648166100541 -2.690190841377086 5.748994736053090
0.270693292249759 -2.646311587997082 5.629895702777740
0.626901653012155 -2.496129113342721 5.552454437942927
-2.308591666206601 -2.264036410026361 5.636753879019616
-2.103913987539001 -2.437411749450139 5.731172531366742
0.429716217252567 -2.362550425546861 5.686955522932133
0.587585875570734 -2.331182824311441 5.650377262032109
0.947513657180383 -2.318274390342781 5.573273428944085
1.135051680143824 -2.314452199178824 5.503952169181048
1.422647282505469 -2.207333715683315 5.519367023884340
-2.444652873052271 -1.988187758311575 5.600535482809992
0.610651070703085 -2.147406164456095 5.747563821855149
0.963140647996490 -2.129339954743837 5.668631452144793
1.225430809195737 -2.034786182823874 5.685309747598372
1.501088732393678 -2.111524955203059 5.578094918374292
1.713695396639176 -1.940083366001656 5.621423061254550
2.056928855965038 -1.918478459891489 5.567033634320685
2.325460751634568 -1.905417886502927 5.483478886606718
-2.585578938762055 -1.650572072468390 5.528157070544585
-2.457964310211084 -1.692154306966208 5.659479219905912
1.538695158329057 -1.816233148889597 5.733345436997816
2.104599761776626 -1.689410393548777 5.669332429672379
2.421107950581486 -1.692008264207941 5.628768637882082
2.700689075541844 -1.562069560529434 5.728899723621141
3.057423314938446 -1.564151986159418 5.640009565613196
3.342411208846015 -1.577990161027485 5.490038478844998
-2.651653830124579 -1.379381310656571 5.579763914137121
-2.483139273577117 -1.432704589660288 5.692694513751644
3.398632405480352 -1.388024558249198 5.659668112496243
-2.562831047155732 -1.149829512317220 5.613408999534738
-2.491875882074391 -1.122835203508138 5.714564486082462
3.456142768929604 -1.248040773163322 5.752087406228167
3.644509591474239 -1.209856619257737 5.671481502898879
3.921044394743998 -0.961896176270917 5.553296192930095
-2.601802709615979 -0.839541581106429 5.508587433310390
-2.444086507042386 -0.753416951952624 5.712244544676263
-2.566225224960782 -0.464979456043319 5.507789324878111
-2.424575769563877 -0.516933786255661 5.664000067709221
4.034350851239005 -0.548850953041346 5.622111291216897
4.215230904015050 -0.387192150236496 5.475471198669526
-2.445930516252961 -0.130317117800793 5.588764953786126
4.046182462346302 -0.269328716289966 5.712490558829303
4.212924841751438 -0.147522023949843 5.642527348308150
-2.392401448361618 0.099474890161666 5.607877664705477
4.513770983935785 0.019485941277787 5.578889424233785
4.681451764271061 0.146341258334160 5.662777132809344
-2.311168441030901 0.381983569687151 5.581147059605544
-2.017250496632916 0.776023108430513 5.573211215283306
0.633781804948017 0.786926225682827 5.752721597598748
0.900446390150951 0.818246577790573 5.639551623188080
1.180978802167179 0.806847067576690 5.703399466407391
5.392623602914090 0.593442710580388 5.547988910415937
-1.782672295216174 0.931017267050949 5.616033704742464
-1.498158278190270 1.120476523605679 5.605818609611762
0.129427157525159 1.100107161400135 5.734626151622737
0.343101326438952 1.065089530411712 5.664877986984727
0.601236924494740 0.970235936681093 5.561479991252257
0.923387365802479 0.995755315242699 5.471792279054002
1.228174099090956 1.056753315548664 5.500828600016318
1.547527281191953 1.029238873747100 5.636414336534669
5.782958530617422 0.964197932320460 5.652163260583485
5.956545128604233 1.085516048820089 5.469720384021387
-1.362893309210239 1.256959577868376 5.454309963253830
-1.225754217206103 1.216552567274453 5.663741005776544
-0.863639720103038 1.349963458314846 5.592225317319386
-0.603033669306926 1.328600571196875 5.634996493209780
-0.264157071442427 1.280763161861076 5.653253246691561
-0.075741995206554 1.376278035538405 5.526061296920565
0.282142642672512 1.195712861479783 5.591639622120907
1.568936262766835 1.222932723675961 5.479985638050092
1.867375886331078 1.327066822020667 5.564041489782346
1.971489408442763 1.237240895731925 5.715478338712153
6.206841909322107 1.314639816480471 5.594113204019002
-0.333815344961439 1.452179255932003 5.516010118851561
2.209553099028596 1.545425270837745 5.618328866914062
6.410569340137525 1.513041536236333 5.704797126087320
2.442559331666831 1.861421547905964 5.627468039826599
2.613391878226902 2.019014708762913 5.675058372712256
6.857980659830059 1.918674650708932 5.567382483451993
2.648175619105309 2.143765984752595 5.522758291919064
7.043590220963226 2.147066703505983 5.590571251449537
7.076580434836874 2.251307216308325 5.548990009968577
2.782751665320533 2.364028393286329 5.680691203101699
2.875121977918636 2.578802143622249 5.681700616283842
7.095528766826220 2.441144973939589 5.621398443673854
2.979731800618229 2.838768322067621 5.636221229396049
6.962610467571240 2.802982904301191 5.567684009556698
7.071485981237990 2.653595711445078 5.643068981270264
2.993520047522448 3.086226806579790 5.620445586265746
6.883529955911167 3.172370557081451 5.592785413467020
3.049849737021797 3.274000451659391 5.676970715338659
3.192674704990289 3.544188145204916 5.603786943308575
6.761222852355216 3.364146106282765 5.522695939697792
6.840978825628325 3.381028178032826 5.698967816920625
6.372343410243689 3.840951741061374 5.527539183125198
6.544231579909889 3.674158579236026 5.585229813774172
3.698647184714411 4.146541363119094 5.710603364932145
6.328552613881595 4.017111961621301 5.602555048163567
3.930448633877185 4.296478364006332 5.581701578693387
5.858944780966102 4.433172584458402 5.622092862671500
6.020852807908717 4.338258416699489 5.606242835650562
4.473043898606002 4.525374823180056 5.637310822916064
4.829156763477508 4.540514011785081 5.646375173163075
5.319447728832033 4.522170958210377 5.657591367846418
5.619031723497350 4.495891436791222 5.629563628703296
-1.763353464018690 -2.805915888575040 5.842699888468191
-1.562882585799926 -2.827170773563073 5.989027509786684
-1.331734795756817 -2.879486365617439 5.873463071518689
-0.524048369488736 -2.902965371658297 5.866815077686695
-0.203649124955536 -2.865296247100416 5.932164639515215
-0.041234197547397 -2.806984911635390 5.964732775037684
-1.990750479284612 -2.680804337986838 5.788836466027646
-1.748489865303662 -2.629675793664994 5.937214116378489
0.106107057274883 -2.684597708568519 5.924078664900204
0.208044509957600 -2.527241139751173 5.931033500941099
-2.005449992356010 -2.280763432586194 5.821667774110712
-1.764996779903722 -2.283374605052563 5.966277770707137
0.325977404278627 -2.261936359501830 5.893681402788263
-2.224200428804150 -2.047659376240807 5.768283742104732
-1.896351271593157 -1.937284097667784 5.969902143675757
0.399877631043222 -2.094720061646883 5.963808045409394
0.565292878058711 -1.993977577738131 5.886205787139256
0.902496877587595 -1.968875127696095 5.770234673828079
1.181577244930896 -1.879783225612214 5.787089033479797
-2.341447268562549 -1.622602898226432 5.785969049025264
-2.065882042333565 -1.693362055636193 5.935214882467731
0.679302806170155 -1.692726284676008 5.998802444422040
0.933004849532416 -1.663508588030037 5.917362395385919
1.164943658329310 -1.736013967892685 5.885685492492867
1.434018664939534 -1.621649047801466 5.834252946452200
1.811228542438825 -1.627470389739888 5.763542479199228
-2.335621077006917 -1.284492435960749 5.789055761099199
-2.193025911613935 -1.392316677320807 5.936517898403793
0.956548955910964 -1.451252112333933 6.000183384469302
1.232764677461719 -1.355179994545757 5.940671006662090
1.641495542660760 -1.513547754738224 5.830844774037487
2.113414056522922 -1.405897476075513 5.865024691386417
2.468588705211610 -1.374511076800050 5.897551997750661
2.676948536572875 -1.425715506084523 5.845786306101080
2.947174472814113 -1.338815769540065 5.868893623622912
-2.358898662279652 -1.086328278167932 5.868359380553691
1.139493282892578 -1.087057083260938 6.010224493809242
1.519354538494251 -1.110012838698249 5.992422518954683
1.936004066514557 -1.240720068144053 5.962334108178776
2.317235939406859 -1.086420351614677 6.035402043637787
2.742592400885797 -1.170725958633247 6.002322596807474
3.131437826396608 -1.060875893604070 5.986257546996809
3.538855415255174 -1.063592718445372 5.814433115156799
-2.365045690653849 -0.801529080556664 5.914402685549348
3.409789434833734 -0.708503954168131 6.030063585012993
3.730328902584549 -0.839375031395387 5.766240806214887
-2.288514297143931 -0.541409792767946 5.805906010122997
-2.218422248458898 -0.436773458827605 5.932325369685604
3.646920751870817 -0.542937537656180 5.939287618712807
3.791978067921328 -0.446305104332924 5.871575046258581
-2.176166771625252 -0.190776106247279 5.907863900478242
3.655740404289459 -0.127302341715474 5.954050407742088
3.916642501122827 -0.184184333334799 5.862326098796482
-2.239018503469626 -0.017774776230763 5.787819524392119
-2.090803116691946 0.107732451161592 5.963310925005245
3.415237079126000 0.040718188945486 6.026145509988767
3.615875719460108 0.027011854385286 5.988053845211402
3.933497103255406 0.033732661755675 5.978793154747631
4.082073994355970 0.034487331473801 5.939883290266690
4.455014545984540 0.109510424751156 5.831177319217603
-2.054139622614785 0.376551478810080 5.867294524700128
-1.845807106145121 0.541647828853887 5.993056571764772
0.943046397647246 0.451327518730707 6.007369593437947
1.243995559557185 0.430403152475598 6.021611013977026
1.456859392075306 0.457816167997228 6.052156570455224
4.804715870503165 0.311842412854513 5.903850911517193
5.104856947625422 0.442783255289348 5.852148380358420
-1.730203270510649 0.688203307127652 5.946445930835786
0.223719234863103 0.847925126631988 5.974881730627009
0.661829843203176 0.672105372293621 5.913609034146220
0.848444360489336 0.630840672255983 5.897252037379513
1.205831358362407 0.622479516504425 5.904902724209800
1.484938398600363 0.727843339213101 5.910219082436167
1.856278853670608 0.809884036434099 5.947139980338786
5.219612123341556 0.575893192941736 6.052360046537308
5.513959362782996 0.737891746072271 5.867441648230231
-1.453725773550921 0.948314142726374 5.886865577560680
-1.183406020310084 1.058353111892590 5.897530659434936
-0.890194261004832 1.078387665763320 5.965433914219178
-0.635888578860415 1.112899966638458 5.945496375786064
-0.229913612561340 1.099045857313844 5.878559811365687
-0.034891383198406 1.081303255629987 5.821503926329259
0.343478869138753 0.881163848747527 5.845852953697595
1.732328041641565 0.920954819395285 5.821651978214657
2.076023877328279 0.963934621199371 5.939454029863357
2.416629952610241 1.083037478744291 6.028999578997113
5.805257301483266 0.972148071466760 5.858041704472287
-1.023929729997067 1.191018224179742 5.770803326086077
-0.595042885749723 1.196492749207401 5.761938502947136
2.220055430058625 1.267438838576534 5.826836426852910
5.991348614352710 1.152859357563895 5.894397483409446
6.204687986478397 1.318485285807037 5.827749471213066
2.428126732289308 1.486545167647644 5.847894226861540
2.573494700962245 1.577364364821244 5.942800404298765
6.362144803811499 1.491898452245052 5.910447360846268
2.564742943184542 1.877427224545928 5.778514078889524
2.660650497295392 1.825214259629092 5.951949923061350
6.608809221239064 1.754045203335374 5.897931468750637
2.785336234172492 2.190102368281645 5.888991869133000
7.042196094575835 2.208169178422701 5.845445862972936
7.100168695825449 2.314443135721206 5.807910795690790
2.944182009586644 2.495213836557189 5.949072178683654
7.103883433328082 2.563689350790896 5.868188558560821
2.978029931378740 2.754003918167567 5.908120029547177
6.996350861803084 2.836217885283454 5.881188615654627
7.069388175393424 2.734588475667235 5.998779258633092
3.018126658844882 3.072809439925061 5.867411303482545
6.906706010983598 3.079289660095002 5.880600322446927
3.100446763297423 3.314079489569425 5.952164045207880
3.197466958156744 3.541640710564737 5.948996829488260
6.864954917433209 3.405275386533166 5.930811827247772
6.694744576761186 3.709555450290273 5.928644856624426
3.434113729154299 3.864677731178714 5.790669575146204
3.701293551545675 4.148354842834660 5.988989267090971
6.363341689338933 4.140871814199347 5.851855809880163
6.535449061703027 3.968225510802728 5.938167461057660
3.868875815371341 4.300274297957110 5.906305857029153
6.043472923648264 4.326270255329970 5.984069815393122
6.252335891248361 4.223406756694291 5.884964423693983
4.215131071180769 4.482139792950231 5.894555026688526
4.483899420329411 4.528014746948455 5.909881525984933
4.722944257757078 4.491325452907739 5.952564623589428
4.978428881845251 4.451074738548471 5.971639553681371
5.477324245894539 4.489842024283438 5.820091648517455
5.792166244786526 4.454476398620073 5.767025197158484
-1.493037220976976 -2.813292000470934 6.244884584476587
-1.138872724459720 -2.888086122535729 6.112499872437835
-0.871027118905653 -2.885319900879132 6.237915961666765
-0.683975166147149 -2.893464763703121 6.097623325244856
-0.248265256886530 -2.858286748945539 6.158163729526933
-1.647703402294840 -2.615415369554475 6.223964610589066
0.094997600356990 -2.720993993356090 6.229389641809085
0.222551955094066 -2.567282419927214 6.220794919255326
-1.685213487120329 -2.208620111288397 6.204452355873173
0.306967024901091 -2.261945347459060 6.182982915737072
-1.737340567625718 -2.090919763040616 6.101783188327124
0.335166117185635 -2.005887614083738 6.198927810508006
-1.889966404134931 -1.729363964933562 6.167521481615150
0.429951492967499 -1.666089000067245 6.317133973830791
0.503395758722008 -1.751423903698520 6.153843274834768
-2.112651381212395 -1.336521623478740 6.209977132172494
0.720463585839007 -1.298296178546624 6.275355075808399
0.856159708882424 -1.383052361190837 6.081272679167353
-2.260558609456500 -1.030234626466220 6.141132243379972
0.889204873537746 -1.090813134883517 6.168158790596793
2.042671397049042 -0.991334461219698 6.063427704373534
-2.357511117515618 -0.766592253428326 6.196546278963237
0.975953392089571 -0.844705675208450 6.146294249837251
1.166867801690926 -0.933794307264726 6.062311876733753
1.486110897481256 -0.755602743709428 6.102190694733258
1.880900498806394 -0.800097981611401 6.121984892337693
2.425567589287578 -0.696051730618443 6.230168213212031
2.666571371853696 -0.793192634759463 6.172585336438781
2.965435914259198 -0.896848399193352 6.094601043799570
3.219077129565595 -0.731529382439359 6.102479731918975
-2.273314719257934 -0.487905675002479 6.281951317296737
0.937029560711064 -0.506514432176096 6.257462302263622
1.174660166623992 -0.468895914528473 6.175790517733131
1.425610675741777 -0.518559412584584 6.175018643420618
1.801915291361864 -0.468658052351029 6.224630735534302
2.176259853359567 -0.525026723535381 6.263355598665390
2.422457668331281 -0.573998296682698 6.253095817776108
2.666466296814145 -0.549436925360809 6.199829007946119
3.067158055484497 -0.469277948897547 6.164025288648075
3.327945909192447 -0.581142198514539 6.091130380603094
-2.216040878568039 -0.336102541412824 6.349711970241589
0.910473216213537 -0.184213742799166 6.257060622326163
1.185428810919097 -0.171957582345255 6.185957439999549
1.452516213462500 -0.185422856289994 6.196489515348465
1.804489930045251 -0.165574446893175 6.211241819967206
2.101258583359656 -0.206667505121701 6.251345244523781
2.628540350384871 -0.260018005488687 6.190759946642390
2.888310373360806 -0.112047177978884 6.176986479523954
3.343317394461832 -0.162786644439992 6.075531933248279
-2.063798369659155 0.065543102322617 6.157451251478534
0.930569187022220 0.126163402123777 6.265334373349767
1.229364957237000 0.145130153036264 6.175562891712013
1.494027100853793 0.119951997005567 6.212854542850339
1.787899320289512 0.089891159767511 6.219945566534530
2.112133157150678 0.163104583742822 6.238520639652609
2.436799787707715 0.038733864143636 6.217205671371357
3.089414022705109 0.155834730424012 6.132881912928372
3.324518546149631 0.211556624326454 6.109433320915445
3.716475763183377 0.196557381818061 6.069916907882021
3.974067060987586 0.220439945291039 6.113529515451770
4.234169767704127 0.216422938075730 6.081462945815893
-1.875784021912029 0.415108383531793 6.159422228286349
0.659681947740856 0.467638097732690 6.183099722231589
0.908143494745964 0.324629583299506 6.097759114526738
1.350858953187446 0.291698834970219 6.060423851473645
1.524197054479075 0.330719305363672 6.104812640277858
1.837368325602085 0.361707909014129 6.199585626442421
2.042194021514960 0.351641142889807 6.251973824194446
2.429914716874398 0.325494293141469 6.212849675913067
2.697783323470089 0.405587384090921 6.169352489232917
3.011667453682851 0.353150620886550 6.149975705109774
3.343027387352672 0.425970533065390 6.210940589458218
3.621159169569693 0.450392581812860 6.251462605260264
3.853253489425121 0.410249759889807 6.216776434061440
4.194810320614401 0.400047828005817 6.248050322217630
4.595633769485421 0.504497959738709 6.318564541627503
5.000124960758966 0.489840615243623 6.100366545859830
-1.597531507319894 0.644997328414256 6.335994065880330
0.134376953970693 0.792515617358118 6.210465326971636
0.399600232938808 0.699542012379087 6.136152356214320
0.535756423001550 0.590587186686880 6.156183977221310
1.899970025039159 0.637977022541025 6.083132114779338
2.190314528995938 0.621857033495396 6.226198178003413
2.419016172118310 0.700420485896560 6.211933340741233
2.710521050912956 0.698280107340916 6.196441411764425
3.082635828197735 0.750664575506372 6.267147791482891
3.363344512252839 0.723389173646431 6.311608112140952
3.616225446141198 0.589090248414638 6.314674317262113
3.782972051641330 0.636164374188410 6.347062832200489
5.504508636604839 0.847105333482756 6.230652343570083
-1.427556026681328 0.859604390478643 6.060949272858228
-1.201788933119571 0.928186799513026 6.191733287909856
-0.789126506341779 0.990646589913168 6.335574920392892
-0.641412292862633 1.039102371630076 6.136056125952825
-0.281799771011758 0.945309042782060 6.224145057917426
-0.088896235487516 0.869210650808751 6.291081760898295
2.451758593645942 0.935615489342172 6.137122164189249
2.719742990625877 0.999757773606378 6.244730689957123
2.940323210740775 1.101868819491799 6.327469824430025
5.765740126367137 0.995172806935530 6.162482660053689
5.937136683408733 1.148265245900593 6.175765484470961
2.501854631370357 1.151484837486082 6.063843662969662
2.725553894340590 1.280866915957272 6.201722575625896
2.879517463117065 1.291391721499057 6.302371946884215
6.112474316516177 1.306292932459561 6.176072673081094
2.800777692490193 1.482498369926617 6.196077205511952
2.904097540105335 1.549091789289261 6.299985519535408
6.371913734158881 1.643173670361274 6.254891838869718
2.784214309871076 1.932976679916430 6.087085245607966
2.882392039078184 1.936665437326867 6.253055635233511
2.925407935890362 2.235502313820856 6.187525044122566
6.908239552319070 2.191823104841423 6.163061565788074
2.994440539509034 2.447506170647148 6.215609246666062
6.999277328668350 2.524100747741288 6.314126726198856
7.072762816169143 2.552535369768332 6.087083721442557
3.058762987052593 2.815153780772451 6.259325289642876
7.014118889337171 2.801250136072049 6.266894572184282
3.064972506208554 3.060310937171141 6.165520529554294
6.896537599191895 3.037187546632270 6.209908279154820
3.153425782986120 3.356090753536423 6.164294615603845
3.211768687149843 3.450579032530635 6.193241772889743
6.856585240211412 3.444704206242412 6.108295115756253
3.430808645745421 3.815650318153236 6.093033786077782
6.727222878898194 3.720624424451169 6.301363711466252
3.615604418017331 3.989096461988280 6.266240220262159
6.349000124204466 4.105626459042790 6.201845478782047
6.550519593584405 3.924143414100218 6.235856629452067
3.925731175664159 4.291744777352070 6.206145703642422
4.243366720341711 4.384615445741805 6.312857281160594
4.786491147588386 4.364039212722131 6.194222504050101
5.078938930529151 4.320532396087806 6.183646181717497
5.486510390813767 4.267978618548183 6.253801714201151
5.799566760649023 4.376611498937890 6.054232830143328
6.040235942721065 4.273020072758986 6.146204088525293
4.259765354536178 4.461666441095654 6.145039418312181
-1.509342603960520 -2.799969894154259 6.479034980375159
-1.271318680235809 -2.853625989685722 6.470175353254658
-0.910564662414064 -2.885975915527156 6.488571059816214
-0.608334716598958 -2.886183686984483 6.475781372188955
-0.258106446530341 -2.869640949878631 6.389920977892850
-0.112848910569301 -2.830930196824283 6.379436936847728
0.172073859907162 -2.756762506742531 6.588829551927405
-1.657418968378179 -2.632140461504790 6.526178732796019
-1.634214011896518 -2.727457932668255 6.571038523351693
0.309860814583728 -2.613905392739962 6.528019393461375
-1.685948689089369 -2.367169478098672 6.492165041850317
0.367882835742053 -2.274655547550906 6.535729060874304
-1.740305115532790 -2.025850462900006 6.438413685980801
0.379889033068910 -1.965599904073182 6.504077364444037
-1.843533328476078 -1.763486633705997 6.531943126372345
0.404080609531828 -1.691876770301303 6.481759472230336
-2.048609091436375 -1.391400307508850 6.420015485330393
0.463511051901605 -1.515985588029457 6.495134254627277
0.525120277176647 -1.408223006088212 6.524720383620719
-2.185522791707323 -1.039039522192494 6.633519259479500
0.651405383169491 -1.140632767520376 6.520232686415054
-2.343554338165702 -0.768238154126341 6.457755641934633
0.691444030696189 -0.850370683962752 6.557734499179188
0.790913143686080 -0.882639575009948 6.365740232241702
-2.308330341119226 -0.544905027358287 6.437202944404195
0.703468587288198 -0.462091093313274 6.541105508167244
0.798765643872551 -0.381183335952784 6.385520712357458
-2.156990345973128 -0.220352917047652 6.496000604101726
0.687438385441201 -0.214362323468601 6.493958707415567
-1.972607276125792 0.151838091600985 6.489464082185317
0.706439324230567 0.100167914317027 6.512118694868617
0.784018096497359 0.153485506567231 6.427875052101943
-1.833185215273328 0.351176480280840 6.459719855670829
0.344039450248108 0.486364028586125 6.598515900221724
0.635131851778980 0.381100281192591 6.483145152201086
-1.580886235450174 0.599769382632094 6.537421669654263
-1.191441882213925 0.804217535845169 6.548364830888683
-0.235929631990621 0.833904121195103 6.547125615131030
0.019173188662632 0.710897483450020 6.543580729697825
0.333827461181761 0.628893481665912 6.468239062756602
0.467314537399181 0.578495497536635 6.487518692881639
3.613092731984013 0.803644657492173 6.380768918854583
3.885573601667422 0.736570294662786 6.433091161812553
4.305999526609174 0.690998164619204 6.492784268687791
4.522760927198745 0.643818040069270 6.477843290866165
4.775414829721428 0.739320789703574 6.527336405704297
5.018095148050467 0.757305456566457 6.465995537461583
-1.101037258031536 0.933394226099489 6.364075150812763
-0.867458909123009 0.895161783862541 6.558496166202145
-0.538841734199855 0.950134273345542 6.472015528958295
-0.371528323914947 0.910900454434971 6.498708976753033
3.104508456271310 1.056466911012289 6.385633084916238
3.335545536481539 1.054074664122830 6.457276479959927
3.926886659316668 0.968191753746822 6.628728876879684
4.187101738591991 0.864714639973584 6.600708065761148
4.814404712886335 0.886942514054500 6.645993929828846
5.099777458559643 0.922206505597192 6.597284513131854
5.386403068199037 0.993111950555422 6.530633314044163
5.718155959423362 1.075587773907235 6.372796009600812
3.022383306430612 1.334779098989523 6.361580369159435
3.308010472260124 1.226868026387989 6.522149809378422
5.533414087182730 1.153990149736781 6.638513741683612
5.719829908723771 1.206983856837600 6.576867070435684
5.984038301370320 1.347631762360266 6.484401220378544
3.053283058165757 1.631660748384922 6.463365867169571
3.236174940001257 1.619399599753309 6.588194459913630
6.196354889226413 1.571348276111717 6.483856261964628
3.051444522094606 1.858928752286350 6.498576651483444
6.346857563321077 1.751204020452758 6.508089383481645
3.059589846786902 2.099172230341012 6.432640285972512
3.200790054429544 2.246480184458450 6.628053948724540
6.657974363393307 2.089302427955662 6.548192808038219
6.842504238081615 2.322252266473771 6.514174267475307
3.121496873198763 2.622772375821114 6.436540625253796
3.266833388640080 2.502026883646912 6.643640341316575
6.929005197530917 2.570422697885786 6.583901648039562
3.077828148629870 2.836487801121315 6.364008641776740
3.241372621166470 2.768672971024202 6.633051548539716
6.941157714737026 2.790831841980245 6.593087931519282
3.164788574669699 2.994016669910109 6.447776911208440
3.195436215590169 3.228904692586326 6.407969451862169
6.850114765462721 3.060053491777534 6.549132248172047
3.375553816167136 3.448846379768570 6.493898849283146
6.759515648536795 3.442514673352332 6.653090998214487
6.827545293582896 3.431873874204249 6.495128296526133
3.448146997194701 3.670325441793223 6.397133882849565
3.546564436052475 3.646494561383655 6.585029669002613
6.668785822880352 3.658550848328267 6.548255714501458
6.788515943771265 3.579186169883761 6.480391972550771
3.679019121139542 3.917957288573942 6.465592187870201
3.865603986480475 4.014627133229961 6.590566407691052
4.257281519161695 4.139828245855995 6.639934956647132
4.934384519783320 4.093400781897057 6.500862899596741
5.232572656055099 4.013032094129584 6.541506987191989
6.088932265451590 4.063219327750963 6.491033349034234
6.266067235977316 3.967631363414253 6.519984316733654
6.504965476404747 3.891673471779544 6.427477799172195
3.995230236250165 4.174727061222772 6.526336137514607
4.150569087187158 4.262620276492827 6.480301631110173
4.461759532160734 4.320041822666890 6.398010693641137
4.670200236662329 4.211340562674521 6.468944381846262
5.860581873175715 4.159219232429540 6.420832715110529
-1.541485081652441 -2.781510288112608 6.813371216500433
-1.157591554087955 -2.861167837249769 6.797882000999921
-0.576451808894849 -2.886440439575630 6.741048644113189
-0.150563552248709 -2.862460468076978 6.698081035632374
-0.003781712318313 -2.832398522354987 6.692265790355587
0.250745735893093 -2.788100871714200 6.837028942482188
-1.644798440017888 -2.568480829620056 6.865163511764424
-1.616099398385822 -2.734330117375843 6.809238003219407
0.381626327607448 -2.644093012827938 6.696055004122517
0.555088174964886 -2.542983251242480 6.840609784362994
-1.749201345716520 -2.219880506768599 6.790944277179753
0.618766558702831 -2.265408193534463 6.871492816465472
-1.780703350628904 -2.089445617969260 6.743957998757728
0.548843364451685 -2.007459264173113 6.796909417196476
-1.941358282671279 -1.600430725463185 6.759052224483191
-1.921120691493356 -1.686441873574275 6.862577695868039
0.537078525645347 -1.703926129221330 6.831934627443795
-2.012544428092309 -1.398531184654470 6.893654735752333
0.506124915447072 -1.349124185161939 6.776202289544290
-2.136032170958041 -1.022702893818068 6.880435926282233
0.581989486590612 -1.118311087986567 6.824844972044460
-2.263490988236080 -0.816665174644040 6.698797462654786
-2.198808987763227 -0.757790890994591 6.894657636591366
0.598500250863000 -0.833686984649996 6.816664984135822
-2.179272882168027 -0.505498769915776 6.790686346824426
0.632457305207713 -0.561731259230188 6.791092051944167
-2.017407139268800 -0.217489841607345 6.869834385940136
0.563573896598495 -0.143119368245968 6.796366703462527
-1.938380479143833 0.050505062876544 6.797335241299614
-1.825566328075888 0.213310523030582 6.797891492393605
0.420875896227245 0.189143056093223 6.831485506703317
0.566848427418949 0.084923973980266 6.762270499744009
-1.649690526018623 0.437988646594535 6.743555203408312
-1.466729156096528 0.519167220436082 6.893650578937581
0.235357678788900 0.437476111335681 6.761603261696155
0.572024700988192 0.282733278353801 6.670333881484974
-1.271548967773040 0.730434420408171 6.713951754353407
-0.897674102748836 0.837470321850617 6.699890358533188
-0.543792777689814 0.801891867271979 6.820964978062044
-0.249244071293420 0.727101578714120 6.821393638036578
0.022328626740458 0.622730241714184 6.722581717458891
-0.545927348251514 0.857783151375542 6.689037746580103
4.059350905077665 1.049114683481155 6.726552306909476
4.211750403023661 1.087508271569967 6.790934855066316
4.549204573520337 1.026175994077740 6.752421342871926
4.815213975438197 1.033324676246545 6.722866805670595
5.186861411277837 1.106447689501012 6.704034010037924
3.781736230615724 1.348635771683233 6.801143022172434
4.257774448110972 1.281254220243714 6.896695099341788
4.513898944549885 1.284195235960610 6.899393218516709
5.123372439732066 1.364320265103402 6.846245501429348
5.443610446039739 1.276569905700305 6.760521427563677
5.706215647610316 1.339761734271593 6.722674899389570
3.457899854525042 1.611897796171369 6.763403301044025
3.670674038405024 1.564562622431205 6.865115916235519
5.541237351105450 1.584553437373384 6.897531796871010
5.773045381891580 1.584599647297371 6.842034994487359
6.011811574170408 1.586064093134307 6.715622863163736
3.303568084335250 1.942829855042774 6.739403469208226
3.552025151217792 1.863368230440898 6.863740587888171
5.901401378353472 1.870637899012386 6.914946495151223
6.343025187960978 1.941166436339736 6.714729771514387
3.323785284027475 2.173530112017705 6.826983739834390
6.342916348694736 2.167071305217087 6.853830510586564
6.667697845899405 2.306440435961715 6.732112739441998
3.379530837133878 2.536789113008981 6.857641720831553
6.667719461336113 2.509618751548468 6.910977984108015
6.814704153826380 2.488578756563023 6.731691146052540
3.367327064092542 2.782291435139240 6.782730780725533
3.477106555644607 2.817162630781335 6.930131616559252
6.746944470804970 2.755048110033131 6.924192706043609
6.844131908177791 2.769954840319889 6.794227052349464
3.346360182859892 3.149433738244674 6.671421719905427
3.523140507807074 3.151858546849686 6.850621588158936
6.656569152166579 3.143132630603689 6.865452456576480
6.792022078453621 3.049247667083819 6.754525730339846
3.388002737358437 3.259667754396394 6.667496024054159
6.445840606106032 3.433882216157997 6.881645697935395
6.622502600393289 3.351581163773067 6.834130857424308
6.783271567720345 3.330240631081093 6.688805796316974
3.655513303643537 3.578775199465334 6.747533690806925
3.889065187498148 3.728019605734735 6.828042255390784
4.080521008364829 3.810355644643824 6.917822456717260
5.284601012210141 3.789332692598860 6.923899304202403
5.644685990697641 3.783224461162343 6.879363190955376
6.248792068112259 3.608261980586216 6.882842999144304
4.043657820907009 3.995955899130630 6.751067121906149
4.163717923608942 3.950856953166255 6.830232134682094
4.588134459992331 3.991793264838528 6.752743288174424
4.773946157789496 3.913960372629931 6.790594134817189
5.184451982887404 3.879307225014965 6.745391961286487
5.735741087108385 3.901339105280352 6.713282645738916
6.042697746977365 3.852465979362398 6.735960148615447
-1.515594072305348 -2.806429376437274 7.097960379499678
-1.252137197125738 -2.854941067312589 7.031995886208928
-0.603746078075079 -2.879509990181277 7.070283129120348
-0.221974997029267 -2.881788548187283 7.007906451921819
0.304033606917824 -2.814982438469857 7.132421690113866
0.495148846095870 -2.754295160066563 7.171736774752827
-1.648325670535107 -2.633347404214580 7.144985454859383
-1.612619774944214 -2.749465911248820 7.036888318610892
0.609203750942925 -2.612217587390382 7.092656948967189
-1.673136762503190 -2.441441227109702 7.111875455440646
0.664497790831025 -2.329176676232146 7.079225823255633
-1.868614855883865 -1.944515361889651 6.956798414552750
0.654518629577589 -1.975582453130641 7.132218186319683
-1.948024427927687 -1.647736108697629 7.081765498508277
0.582385146074704 -1.612300787106932 7.056975433094812
-2.024367794850348 -1.331014121054053 7.046049938323086
0.517628461496818 -1.388133397515440 7.100237805928336
-2.022676871889704 -1.078384674458158 7.172659587627649
0.541184907456934 -1.107381474889116 7.117290322478817
-2.029320639626700 -0.785900380827826 7.219515388253309
0.581440925603912 -0.780664803368129 7.125142276121126
0.451411118402103 -0.386564471209027 7.192273656592855
0.533652811472382 -0.520701280665515 7.081270574287920
0.388157838252739 -0.089864474618266 7.107460918174607
-1.747954855533052 0.033816975814884 7.086565649622759
0.312281004505683 0.056892840105097 7.072438091167745
-1.430259411154933 0.411348105814217 7.145003398443060
-0.228244582158387 0.520178573465110 7.155046747844283
0.030827742554932 0.391874560281025 7.080718096657988
-1.122317655470106 0.668669903462039 6.998939925381960
-0.954942401019062 0.684579003439278 7.065243545476183
-0.661879340214836 0.661927480654943 7.141117123051685
-0.380524640960525 0.609548982137338 7.133352747337944
3.914231236805881 1.579670842766332 6.960990423669095
4.213387356672782 1.525980176392186 7.011407944827703
4.482329807079265 1.478966324432310 6.996623748202452
4.765327833765316 1.486456073251471 6.975677142988424
5.038127254019176 1.603263814811625 7.008399727272325
5.286901254933102 1.646751302257355 6.980375590701986
3.862632972417122 1.909154113136366 7.120319401086004
4.218774172909185 1.815927565979709 7.196001072380479
4.511757145749201 1.784092323084751 7.193218223464875
5.349639436454514 1.878019639928255 7.147030676997343
5.722134654662712 1.902877669262906 7.030623028857016
3.591412033284879 2.228615949756283 7.053466850510436
3.947777147531552 2.077474211580413 7.217923420577165
5.839094050681048 2.182212087267767 7.153055079336371
6.037208534537585 2.220620501329192 7.088306731481404
3.424318306040902 2.474993704001221 7.021286961485752
3.595501646197846 2.495569826172503 7.173394881970349
6.026152515782663 2.407955810293253 7.231308225516340
6.216859832873100 2.622057403683864 7.246747605426665
6.526919208552806 2.544875399385099 7.026702113342711
3.648506784539232 2.778571005109740 7.107592654562105
3.835810432430937 2.929912905462599 7.192859213230842
6.390673023450696 2.800954794383959 7.193217669222909
6.637325201368159 2.845501715349341 7.045185782723091
3.630024269829617 3.023575225365698 6.995037507693300
3.830573400086078 3.212193604483040 7.097313024882386
6.065786081711831 3.070861002290565 7.221340253022611
6.330656470200965 3.140007144685490 7.050568349771081
6.514981875790332 2.962319433264898 7.092153586412887
3.758576398667532 3.370958017176457 6.966103860055345
4.036945535006860 3.438187844877548 7.120665040232586
4.270221960603941 3.481602449504636 7.191216440041069
5.382643644937827 3.547533965398358 7.191922682867340
5.625117161732980 3.448478316915744 7.239471932567204
6.005268124229413 3.354936994962035 7.108822933168043
6.294309120360383 3.410110154677162 6.956180989001668
4.212052326335108 3.714931851396381 7.017009691480172
4.509089532975872 3.752712355496186 7.043708404573596
4.788074201206229 3.658529510012543 7.132433537035907
5.070319913702513 3.681108149978237 7.083111475124796
5.316482534309332 3.732222214728697 7.006852006579869
5.776827875474662 3.634463076767060 7.012541577490669
5.978267118329899 3.605108620915766 6.980468703352419
-1.669185640801691 -2.768311523726975 7.459043963450968
-1.528727632432921 -2.819329288935693 7.423443027432548
-1.262470068674399 -2.852899517027661 7.320410242516116
-0.871821624765147 -2.874405768067726 7.444327938587640
-0.426752577811394 -2.874794568807478 7.376355842332432
0.052608320275178 -2.862973696138290 7.312174137608332
0.447868819431409 -2.810928851284734 7.490898258413537
-1.707714209902849 -2.688136266405936 7.435974542223620
0.680899369435941 -2.653523370613813 7.413113423602149
-1.715993522590633 -2.373074372013597 7.277135445425169
0.713026120512053 -2.319600552808986 7.439521967932507
-1.848338744889245 -1.983021461097736 7.407987332024323
0.705664817268711 -1.943741501543423 7.383834691059579
0.775214863496986 -2.081974851937464 7.525944640703990
-1.943521350507442 -1.551734333452414 7.311717927189361
-1.874794099572387 -1.785451242852656 7.533723703829852
0.634594289031310 -1.681671097284037 7.337051496131577
0.786601556865385 -1.800276522663700 7.506567972047923
0.630957189941339 -1.380683662986851 7.416834270962655
-1.973532583089465 -1.035112787137537 7.321236340167721
-1.899031655025138 -1.106258923216584 7.475300919542657
0.599731534032502 -1.067542652485513 7.406960113818995
-1.941086842668010 -0.790916132067416 7.353742770084548
0.586893132495227 -0.846216871355290 7.466327643127414
-1.806160584809976 -0.510880216933126 7.360516195801665
0.352774372926067 -0.522780311563452 7.433903721034817
0.489554050561402 -0.579130161614346 7.271999977920736
-1.648366303399303 -0.163110598869622 7.326261513520748
-1.519665914835252 -0.269064342871774 7.513227558774389
0.314077718401751 -0.198535389862949 7.330142177212210
-1.456189875602042 0.131703727989390 7.379402002369125
-1.097099368856996 0.245960986578546 7.534461677008727
-0.152964112767671 0.245949624618225 7.430439743382064
0.043944940997775 0.085214419864316 7.409613223927522
0.251025766646849 -0.022561625538041 7.268292514843919
-1.122619855902536 0.473844499277587 7.312910378781059
-1.009640540728468 0.338675552718315 7.491880375178813
-0.544383183945012 0.428514619160354 7.433654854844988
-0.359004326030551 0.425698815941137 7.372177550704767
-0.057539857651924 0.256100704801756 7.331681445714672
-0.826693442537020 0.560710981304034 7.293856648444350
4.444760861756895 2.008420442846631 7.335255821439198
4.776711270962159 1.965533592039071 7.331811045961256
3.934796662107202 2.338169818641004 7.309122134937572
4.248803141234147 2.136653813273357 7.351194781202400
4.487144888086728 2.208973729917844 7.493810903869754
4.804021543879181 2.185003249812873 7.517411669942707
5.177433062619091 2.112324253654107 7.385075592636547
5.292264100204438 2.295579371818637 7.517477209055287
5.577027387554937 2.246527087184896 7.354942496102061
3.877646278815424 2.513625597661051 7.342763144347392
4.165190382860982 2.537372741346792 7.474700028876920
4.394701935150843 2.443049995953348 7.536981815232038
5.737955884194789 2.513516827675055 7.466626016651027
5.972399497187245 2.633619861036004 7.407162827818373
4.221339574226458 2.774759794864750 7.439804585148774
4.527750490505401 2.826610793590396 7.472792281840157
4.735239838670882 2.891701108738916 7.499217430336104
4.979646690006935 2.860833572318095 7.529587257470686
5.282535906641621 2.860102250042824 7.550469847737541
5.730076387805848 2.827793268826691 7.499594245593324
5.946557203399697 2.832475851363953 7.424067415648339
6.188087261806762 2.887404209330343 7.306268412330456
4.221611822499262 3.045247471874838 7.375982144686277
4.374069308011042 3.179524781669925 7.389663053396246
4.677120224739559 3.078159468350914 7.477587444776938
5.154795465164172 3.096031601001110 7.488096149589585
5.362737629016577 3.116405143114820 7.453379887670643
5.649514569806340 3.063668627380039 7.398905546248773
4.538290094307701 3.490846789830385 7.258490329978526
4.814814678741197 3.391054761614551 7.381185333631035
5.099620746643513 3.329315254837174 7.423349395180272
5.515896854138647 3.313041810046971 7.348658431401558
-1.708729211691492 -2.780535330306070 7.751607860083791
-1.562125664473810 -2.827336284070427 7.653069042235274
-1.321022407021348 -2.829880462539051 7.688309824895604
-0.926869491155641 -2.858401061351204 7.672768464463376
-0.573868209966332 -2.856933012941484 7.740088772165557
-0.048418836163802 -2.871833253978546 7.637130428873300
0.251420525487745 -2.851611874378153 7.686489971397419
0.548978142241977 -2.799579153567623 7.750090276298282
-1.761087665124628 -2.693916917746624 7.665676846123742
0.755435745892732 -2.669405797696397 7.699348569775892
0.816428725690213 -2.592152836569824 7.735260493271257
-1.812056495386356 -2.306976075474681 7.674308656702450
0.811982721336506 -2.274229612599374 7.760983763596422
-1.844025218221667 -2.012498820105181 7.727210821505075
0.816777260751073 -1.958527326254452 7.730346376152340
-1.843392481736250 -1.730085241573184 7.719253153905393
0.833388822832595 -1.683270045769716 7.725654648622625
-1.841629507319914 -1.400787457514726 7.697351705249542
0.660181088818844 -1.388954414615682 7.701078959383259
-1.654347959826638 -1.178949454536286 7.766345569664071
-1.519212960587836 -0.996960571425293 7.822812018368744
0.424538835199391 -1.032730100922006 7.791884000293289
0.555454113223506 -1.102540229811912 7.687567528629389
-1.709005639872463 -0.914075070886309 7.586158042225619
-1.549754879853127 -0.697432901599858 7.667039888774157
0.038364601941277 -0.756984191811826 7.819793016188427
0.334403046083028 -0.839659967190550 7.658205895344624
0.525904390999262 -0.907943388086569 7.605708823686233
-1.409145217026175 -0.482051632788013 7.696286475282651
-1.231133643549614 -0.388916396995397 7.786217222583375
-0.214336434242004 -0.388209599927159 7.818676541933018
0.028090041266212 -0.430731459306127 7.676398333664833
0.223931648096902 -0.596564535484383 7.629633752029553
-1.150542981874414 -0.074385120006081 7.698554571971535
-0.971464354051156 -0.170899222669413 7.805403139629181
-0.467498368807559 -0.211017611759093 7.844325197433394
-0.252174602599777 -0.178672050573148 7.746947724346187
0.020133551430709 -0.085092312723110 7.558782507316999
-1.168583696456196 0.067503664000138 7.616092373734740
-0.913292502814457 0.148358976214514 7.657492863054259
-0.622218754989782 0.104071255742300 7.697004264816566
-0.358637210007752 0.107400217742583 7.639927549519550
-0.845634246072982 0.290127004752204 7.572962372357634
4.846250347818172 2.267921589188393 7.564599969561652
5.027036456580833 2.282604013132480 7.554107337766044
4.739773052998075 2.508513939467778 7.610879173794455
5.114530423650061 2.431973359397259 7.607198314332047
5.407904642822507 2.496977877889310 7.595737664301194
4.765254950946673 2.679794313537071 7.579299436446219
5.131317775447987 2.654094944896727 7.637820737243024
5.337267855111005 2.696077064973634 7.630140283000433
5.660501493062727 2.679144187709944 7.564216295560093
-1.719578267258622 -2.785933462315964 8.032873649689252
-1.482575211050037 -2.835537748855282 7.960479487714620
-1.164715711049727 -2.844465824858691 8.018690378369861
-0.838070644511737 -2.849599976038452 7.969613672449454
-0.593293698102313 -2.848792722613720 7.886447725475240
-0.181307215589937 -2.869645799495841 8.011276595340281
0.098980013636201 -2.865420951542960 8.142883290218053
0.324991712652665 -2.848297230295347 8.063480923319799
0.525024705077487 -2.822407479539387 7.987636928409280
-1.813405658894185 -2.698092715285438 7.957591009517498
0.765225414127040 -2.716866091560579 7.966985872724080
0.831310593606074 -2.621161944251567 7.997911927859236
-1.846224242505429 -2.238500958447716 7.984896894685617
0.872065252473709 -2.277349440630829 7.980501340206943
-1.848102429970626 -1.964234528987823 7.949075197163774
0.859630626106469 -1.942569626184744 7.955466022723143
-1.805936712623513 -1.674608558172931 7.965947029293497
0.864030545240633 -1.646693440997474 8.009726745854817
-1.702740765800062 -1.507285790436149 8.037694330849924
-1.513544358498115 -1.309632482082870 8.076557338791249
0.688121884552475 -1.479552116245157 7.972011342992447
0.846325100861970 -1.526329821538439 7.990388855241815
-1.406123489822855 -1.111574276879385 7.991907778445411
-1.228049656498684 -1.030960175387670 8.054549960639481
-0.874351392942633 -0.963544076198883 8.145590000143459
0.365359094945957 -1.131523149560721 8.024476255750425
0.503034185118878 -1.219432257719176 7.917807013081158
-1.369170653726895 -0.821039044405761 7.868405071046574
-1.175378218008178 -0.742996094491724 7.968757368610656
-0.867170668660119 -0.773806232228852 8.068306777405496
-0.622388699432871 -0.809340335903435 8.101769598022969
-0.298301321011447 -0.765907903159746 8.015138784299515
-0.080207522733544 -0.909766532396432 8.027629366011993
-1.160102131637339 -0.505265087646499 7.878690762747806
-0.755582396902500 -0.367019266808204 7.924712175185774
-0.565957375812848 -0.485352559382139 7.969675193307777
-0.286337869596284 -0.566277151842373 7.904932249311986
-1.659998595239267 -2.816665117081243 8.399424992297520
-1.514736209661017 -2.827663078990136 8.276726767113580
-1.326911643600710 -2.843294642302470 8.218064411736208
-0.833441754165014 -2.848068605484018 8.308909104040286
-0.482781452483230 -2.846552476583672 8.356857407956285
-0.122221280789394 -2.856816345007459 8.437860287094338
0.413176874878763 -2.846453128711113 8.383482360681286
0.638161424970144 -2.790629739248490 8.311000120420754
-1.885925125740156 -2.620955904800387 8.280363379592300
0.893730524771433 -2.605553058673044 8.280192996374323
-1.920442022204937 -2.233584693641177 8.242008496067509
0.902668692597322 -2.392142374080954 8.378152354246486
-1.902784288822255 -1.910464467451924 8.383430608337630
0.865847419688245 -1.911710472673671 8.272386221150116
-1.820625849823422 -1.743507042163647 8.273781386741195
0.763786879102055 -1.585220386045665 8.259221727392768
0.821258584174119 -1.725923092242804 8.322445147756168
-1.441955879595976 -1.317730696207983 8.269202793852966
0.636439118058126 -1.462128094823287 8.277094737592744
-1.213747488730694 -1.172247352832278 8.309105790658274
-0.918687216998888 -1.041325793399206 8.272413702314308
-0.625282396741846 -1.011227106053496 8.286451912345580
-0.271195286259213 -1.019068821615029 8.278551054547499
-0.032025952229740 -1.061362379490481 8.264724657321228
0.301191703520651 -1.172473566691052 8.288572442110786
-0.417191072520110 -0.939180984940638 8.173605615243558
-1.798422604869907 -2.773981765449181 8.602260232106786
-1.484895683604787 -2.844379778793336 8.590115889969688
-1.147300943489267 -2.849644592516784 8.500997453551646
-0.463381598038216 -2.849583764460921 8.730329754752058
-0.239798033078565 -2.863005980732859 8.669116500722215
0.641793996101189 -2.792773062214583 8.623431998119852
-1.938837035964034 -2.630443834470570 8.535817289438144
-1.888595001668182 -2.688619011159071 8.635863645436521
0.925000556327271 -2.586655047235606 8.470416806628920
-1.950836790228026 -2.342863612323506 8.469399841899978
-1.928790153270272 -2.398889854345999 8.691593229446251
0.901158798919104 -2.389368670157804 8.676434988773616
