ply
format ascii 1.0
element vertex 861
property double x
property double y
property double z
end_header
-0.370117260975841 0.703137702414881 -1.737952880869488
0.573172396136570 1.107786618224527 -1.387867018100126
0.298920032931902 0.201288937754673 -1.281999714202325
0.455276746453864 0.137764996140534 -1.056265355589931
0.109817792204929 0.010771957452651 -1.197192010351251
0.300065268183027 -0.032582605130337 -0.960000664163349
0.174022378317053 0.775923488691689 -1.659181253366240
-1.285494503640900 0.114670261488658 -0.164049419019338
0.574788848648132 0.926953119783181 0.525285532704729
0.479349232317510 0.285304963275212 -1.209646793278483
0.125116585263664 0.124647855213318 -1.348818458812842
0.472658808879440 0.039720463435747 -0.902798095137238
0.118768304061808 -0.115815155768827 -1.023076055846718
-0.017938904895373 0.696762692085918 -1.720542267065371
0.354976482128972 0.866655985473405 -1.581767365380866
0.156431126965849 0.508083860234490 0.678901076097226
-0.915486278808654 0.060155113997783 0.315051899521008
0.290356871599476 0.276786400868969 -1.397492004135366
0.419188053010832 0.733712444016189 0.634607222935040
-1.161429794795303 0.060982391779359 0.054427134559538
-1.367606099917571 0.874011106619519 -1.327981792809564
0.753237300526630 1.781484186672961 -0.561341359144222
-0.729665856316777 0.736034738122727 -1.716369832866110
-0.728849690939903 0.731525836953962 -1.729892988197472
-0.746550682121875 0.733443916411415 -1.731812779591527
0.733445093416387 1.368401888468871 -1.218750255324201
0.715870803873795 1.368806974736961 -1.221810308064026
0.710430266624079 1.373237347462642 -1.206158310317177
0.132170867257062 0.212368705601959 -1.460663205394651
0.479143793156343 0.352742456690661 -1.338212927378908
-1.410213593480413 0.149509382309590 -0.356672344129120
0.719549675340890 1.073849449210914 0.383202384893686
-0.047329130508702 -0.083566779542994 -1.230430308843397
0.651148290989050 0.213944866823203 -0.988967101677344
0.285208478481769 -0.176513640863906 -0.815153237222760
-1.141043212831034 0.961952732834735 -1.576718512818783
0.716380203738520 1.741208636336848 -0.928471598886230
-0.063939711379898 0.049053245937362 -1.391486952288969
0.643659692689343 0.356345723114972 -1.143336970394274
0.616664310023461 0.108757558896844 -0.850892552370307
-0.069978470038722 -0.190519931757801 -1.072071832844075
0.118037401957084 -0.222888014368173 -0.874261886357191
0.439499018596048 -0.093246863870145 -0.746021634792672
0.296333110828228 0.365398236870564 -1.500424338680457
0.517526250479940 0.940130230149286 -1.515466227933387
-0.180041548210976 0.632850962070801 -1.780758365336863
-1.294202454916430 1.022127780798573 -1.452760003346806
0.689209263811064 1.859047557257502 -0.744358554823375
0.113504786672218 0.263224161206561 -1.553255483399088
0.491200406839532 0.424359415737655 -1.417138393039895
-0.382058494774484 0.173398547515462 0.667723908359709
-0.049630242014379 0.112974952012304 -1.502863212021094
0.658212636369254 0.423121920997193 -1.257140724138812
-1.531310158617872 0.386776334343609 -0.936053170100155
0.932842557910812 1.461715971576999 -0.066494992410453
-1.022498288144133 -0.016889474133255 0.273933965226641
0.269001177165629 0.575064537896467 0.745923415517764
-0.547758813342639 0.081613114591919 0.608176253477511
-0.197899867586602 0.239873958945963 0.721458940633145
0.740944596090985 1.819090019212219 -0.835897223079966
-1.234415184753730 0.990349754245755 -1.543491718544959
-1.362320042885198 0.960019300659289 -1.441326400126535
0.741280376960281 1.848241770487946 -0.694332761972787
0.241190950644546 0.688747124194392 -1.727900520648244
-0.068043086998549 -0.327985066029623 -0.921593610296515
0.640048421169251 -0.001752698766275 -0.688829228159893
-0.307279994983163 0.587080738156653 -1.820975238010533
0.634003994738525 0.980431203528874 -1.483314695911577
-1.530036587481812 0.528562942446379 -1.118771892357836
0.941872511152751 1.589328290694961 -0.239797074356274
-1.531061972764227 0.275122476961469 -0.785927319720445
0.923736644914692 1.356783875424699 0.090227783658420
0.290223825203429 0.442216785920993 -1.612267775938438
0.059258360834012 0.620743521407844 -1.769515292942692
0.410910253852722 0.787395823629685 -1.649019850595834
0.814907505104560 0.304641856939294 -0.943655925349031
-0.233316409924285 -0.156719308970431 -1.292695474825395
0.280706227194460 -0.285670303263277 -0.651187843816368
-1.135227267374707 0.849339464562311 -1.658373700775945
0.795244585183492 1.666512415621800 -0.952954975760592
-0.061941705021228 0.203279844300388 -1.611809640861940
0.636734175183743 0.516951237529057 -1.368077900642733
0.131202466814487 0.377927358622129 -1.642936228247359
0.469762312804350 0.512791336621709 -1.544529843333302
0.811679140051261 0.410217316721621 -1.091975521902203
-0.231642344904545 -0.021510891054843 -1.458932692141590
-0.235294288331761 -0.255236488920299 -1.148585532883976
0.809436508524346 0.179840643158332 -0.782677058784950
0.110755521626373 -0.343430895872399 -0.720101131672252
0.433874222086082 -0.198003388507123 -0.586291566603326
-1.535622091243961 0.607362817521307 -1.215050746940634
0.945228208580123 1.646803554735169 -0.339135068085861
-0.727997069443365 -0.005717721226304 0.556971859590154
-0.019798503861253 0.299996926278343 0.800851047886205
0.541152782495874 0.788192378044330 0.681683254274078
-1.300465035366315 -0.020172278051142 0.011860695201209
-1.405541285127570 0.045696860757821 -0.214448204099782
0.721954528339542 0.966571157659396 0.542081182093490
-0.622638509229062 0.583740913570670 -1.832309618357328
0.807819682603792 1.220790403070386 -1.312930174600593
-1.539375988655913 0.166509117621341 -0.608787448732906
0.912793254631361 1.226997366225403 0.269907732792811
-1.059544893058460 0.779207878706215 -1.698154206285452
0.866509313802955 1.609717254505239 -1.002033341566716
0.820395370314670 0.488212986653761 -1.187049618139307
-0.224384695663723 0.042570551801907 -1.559076709351971
0.271246247852926 0.638575810227013 -1.736704350341775
-0.116586158394710 0.548096148757191 -1.832714688147399
0.588981465720739 0.837341756923007 -1.599701549113980
-0.427437656651407 0.546331239113445 -1.872104762507709
0.767529270505211 1.045426513722047 -1.426431823783544
0.288397713135688 0.519618779850973 -1.706958232425753
-0.041369003526559 0.277016543257393 -1.708492702610747
0.646942945974429 0.583211092885853 -1.486438675426419
0.104572522149675 0.571392072030480 -1.794908425453271
0.431245958372058 0.740410359705931 -1.683080759256998
-1.510405050586070 0.663315899234134 -1.302222922101411
0.926484904239102 1.735350134770205 -0.434649622295885
0.791810149760436 0.053976016607388 -0.627226685752052
-0.247497116549869 -0.380119764897822 -1.002826749373576
-0.065045902780281 -0.439825799095963 -0.751853805813859
0.607053890412523 -0.114948399969996 -0.526607068854068
-1.515867503519469 0.268774076550814 -1.036246113429517
1.066405666046502 1.396771285114529 -0.122379670140618
0.140637795475332 0.432774137780640 -1.775586078143979
0.479271789678291 0.595278128192854 -1.621768439740101
0.284919604458909 0.577837615775288 -1.733989880721897
-0.348774211315458 -0.200695949519262 -1.366297679586728
0.933687854302513 0.352487819380470 -0.881938362057246
0.411698405443478 0.601742782738975 0.789499927526264
-1.164475885766283 -0.052147518972848 0.210368124866484
-0.229532730682722 0.137130049594724 -1.682559170314076
0.826825817592624 0.587684508348803 -1.299112535646034
-0.556897575670417 0.536619928563306 -1.860853197188721
0.842395591668787 1.130543170739925 -1.387406920326206
-1.506898695876124 0.406354450619166 -1.173035620942057
1.039628613241882 1.509243993616028 -0.262498081300173
-1.533827045983006 0.153615667393348 -0.874143444226817
1.055449648534516 1.260639462911887 0.052552908081301
0.123439017990289 0.492053669985149 -1.804220313072420
0.475903175186789 0.637384185392106 -1.686756153967309
0.951233427540366 0.477435513498668 -1.057225003944203
-0.358447420089040 -0.082259937783794 -1.523281634751533
0.922812325440085 0.237396206755315 -0.739289701292789
-0.369702067845830 -0.329011158275082 -1.201956057478925
0.869624904486816 1.800700796758354 -0.857262530933341
-1.309532755690811 0.873491706061433 -1.613305703842992
-0.230900132146791 0.492434822320927 -1.868833665523908
0.694961367094178 0.904161854604182 -1.535119145251058
0.133305628798273 0.388042291063542 0.838297768767952
-0.912481893247337 -0.083621544228781 0.488908306756484
-0.076533256723538 0.491952225289117 -1.869879796895085
0.625721082772967 0.803661055618442 -1.635242423480111
1.103153758104370 1.303109825326145 -0.167855784722155
-1.468202784506316 0.208981014051840 -1.098671004257023
-1.495371155132550 0.768175474584848 -1.419584849899454
0.942735794296550 1.819325749519300 -0.541182070952723
0.273754778861552 -0.409085508049406 -0.483091730348465
-1.528562297218643 0.467638413067833 -1.284983992960512
1.045965278603459 1.599396330134625 -0.365219369137235
-0.039126747603504 0.387747244379969 -1.824709631951969
0.636136461353240 0.670258937607006 -1.583911055093479
0.910021977888661 1.097597992553256 0.416907414592621
-1.529863979235432 0.034542824905223 -0.451074975287386
-0.337745006098422 -0.010536278112339 -1.618635482343148
0.945701451396549 0.548382534802460 -1.145619636973788
1.131311994861111 1.434676103346449 -0.313709956053750
-1.483965063002730 0.314851283855539 -1.251465294847194
-1.492344620271882 0.081431392556787 -0.924390751516063
1.101268392995770 1.186859566160485 -0.008887949520971
-1.415019753383566 0.891250013499192 -1.533544929358603
0.884265742786891 1.895795248998288 -0.713329992910029
0.438953110963449 -0.326805125007740 -0.407486723454264
0.108985936768577 -0.468343065632542 -0.553577669830102
-0.971934877106677 0.623569466936042 -1.815663334574293
-0.986735286937702 0.639758522521825 -1.800548803295392
-0.978963858131471 0.638924490929851 -1.826415227742689
0.951588609122219 1.464589114418447 -1.110142352432914
0.966120341063420 1.472855030232789 -1.128284736221471
0.969082941498259 1.452166752731283 -1.128727906511342
-1.519899698995542 0.046598479812941 -0.698444909623705
1.023719293101281 1.144739047650465 0.219731107359243
-0.211327506117813 0.223485927241332 -1.788321361946360
0.836329602139552 0.655397161275992 -1.396595554256769
-0.060682648924254 0.407070449974135 -1.858129134958720
0.651308283706493 0.707450002200595 -1.614390563797007
0.919656932726472 0.124037664545484 -0.575485248820553
-0.369507029767197 -0.434529592785057 -1.028497782412245
-1.413712964706722 0.119002493256999 -1.141561837667049
1.160074428982832 1.233115661410256 -0.219773066362329
0.796418433882016 -0.069517732946475 -0.448551250926282
-0.252270930289260 -0.513062100121419 -0.825633334404385
-1.464510612965337 0.863737858882078 -1.499457782058965
0.902397574654617 1.888478101497109 -0.660019446994573
-1.248768813745376 0.768447756581763 -1.687908356345120
0.963056073010223 1.729455068362810 -0.898317793385341
-1.477291215230372 0.384114324651708 -1.346572938689094
1.125048417909495 1.495209989045281 -0.441097249930630
-1.501595854883172 0.569741195986707 -1.406949049185045
1.073539871145889 1.660516045109496 -0.487130764020739
-0.202378947070324 0.464961924373789 -1.898977761639680
0.726584526610124 0.849545472111062 -1.563963501617728
-1.426641306679568 0.239447486622935 -1.316775421025303
1.171778425224249 1.358782673427768 -0.378793973436871
1.180612974708421 1.132638302281225 -0.068026404163613
-1.436701814495673 -0.002066697840747 -0.995607241899892
-0.351882282162768 0.084816091886578 -1.736980912545914
0.939657895453888 0.628526334731198 -1.244174842955169
-0.360474735554214 0.440653451030153 -1.922177884187073
0.834354385795420 0.952902688683353 -1.512362685613084
0.711177109299932 0.851749378026472 0.719459424533434
-1.415543427686431 -0.080096830709103 -0.047736865816416
-1.493641607382156 -0.041550042301751 -0.780584129635246
1.110957512150391 1.070274347622975 0.166346949433671
0.619429705051101 -0.262759373520830 -0.342008343386267
-0.096669106413923 -0.544424927643030 -0.601937104566325
-0.485364061226148 -0.267145666582452 -1.394382098153201
1.085448921306183 0.413577851095428 -0.835251228067191
-1.199965173108066 0.714176085400785 -1.753113752750021
0.998352181108042 1.651154169879530 -0.948742593409152
0.267331833467363 0.427273511824022 0.889914290855310
-1.044523461500496 -0.109756521350747 0.426130750629140
-1.405826849383186 0.323900336388720 -1.414407290490362
1.175472420481932 1.424276021230478 -0.485575934334341
-0.165795651924878 0.358221173824363 -1.896137759409920
0.773316544081428 0.784759965404748 -1.577182179804874
1.124886506043481 1.599735970319190 -0.530418257619797
-1.461431747017038 0.474753382646184 -1.473514092458237
1.067987628293861 0.553633347161145 -1.005281783635150
-0.501021512051305 -0.131961849766708 -1.572391040620778
-0.504435353505457 -0.376690867342020 -1.254868944296637
1.055223591843967 0.284430286933972 -0.673200485719316
0.815072421079811 0.752959551977320 -1.519220445603265
-0.211709088850720 0.308925297078775 -1.880079691943982
-0.389857139412581 0.044365858844725 0.834776015412587
0.542729770548468 0.678715328326612 0.838172626428861
-1.302896925283533 -0.136508016392284 0.185023657856323
-1.496148910400514 0.648093349426300 -1.492411353986945
1.073646262389684 1.749046554041786 -0.599262163610903
-1.418923494850369 -0.132338424765298 -0.833363713877028
1.171658642460922 0.998215255346656 0.093820543612337
-1.536607580763176 -0.073852916374251 -0.564430454611717
1.018519189317591 1.035445572958344 0.355739850375219
-0.349284015109572 0.150610487331497 -1.833226584147432
0.942966965119617 0.707157713063697 -1.363882465388974
-0.216301148940533 0.126643679163858 0.899411354043417
-0.553492292532683 -0.051134169970080 0.777397336044828
-0.489230503447483 -0.050907667805552 -1.661035400474093
1.097182390802580 0.602031176481849 -1.105470694515928
0.918316007054258 -0.005153600864082 -0.423697373500985
-0.366445680777096 -0.569777179204640 -0.874637771615988
-0.324342955770154 0.406988313001558 -1.968982351859882
0.861047348324349 0.900844897982941 -1.533495743078160
-1.408088365516668 0.389515388834404 -1.514459135469587
1.196524501888256 1.517017784704814 -0.602198893344329
-1.309775346602357 -0.015058912807042 -1.241234768898635
-1.335840361055900 -0.024582938697017 -1.248899135788650
-1.330161689460461 -0.008452892155919 -1.257932764208663
1.256453539309186 1.109764045210816 -0.336020463500624
1.251815336970559 1.100469636547232 -0.336311099776320
1.282778163726983 1.108682981151367 -0.336249254640297
-1.549720893831464 -0.082239925687220 -0.303846975375930
0.903278686492772 0.995859716752165 0.589800399171594
-1.454594534185227 0.779565034982172 -1.646245831203718
0.997130936374287 1.855707870062325 -0.753680033030518
1.066169475783221 0.168031556541411 -0.530179835432671
-0.519882994366662 -0.489427414811373 -1.070062697778509
-1.461310563986371 0.568528841514854 -1.553856720060654
1.134067343993552 1.682414926210968 -0.656394728472217
-1.477464942406342 0.745747604397891 -1.611333518715159
1.032071567143676 1.815744968894335 -0.709741699574229
0.957272904981986 1.004469683876072 -1.448470147161750
-0.482018431632765 0.395256432075750 -1.980173896206980
1.268823220083627 1.224426504032416 -0.481264729695158
1.277761296712061 1.231046136700860 -0.499183683352115
1.289516365137317 1.215369653537547 -0.469214796990625
-1.306719188449445 0.092700698095124 -1.405600426006965
-1.327957265482407 0.099751553300498 -1.411619770988592
-1.303519235127811 0.095742986132993 -1.408236493504973
-1.341484535303304 -0.143031755600179 -1.099229021034713
-1.331437934682449 -0.132417023611009 -1.086193449423798
-1.336436363761048 -0.142446657047180 -1.097713047740748
1.262886191489439 0.975570101238068 -0.165028177382395
1.268335663037172 0.973767836124900 -0.178892310279224
1.263862796571333 0.981766580762326 -0.172047440292005
-0.881965261805693 0.477728278488162 -1.906990429534515
1.060296077531529 1.313415734422110 -1.221975054234285
1.117673472546606 0.951325254535201 0.326065843833219
-1.482214127504433 -0.164638578598422 -0.600431246614204
-0.265653068169359 -0.635515677848397 -0.678032438034744
0.802585520604480 -0.159547730988534 -0.296829870845379
0.267552722710159 -0.530193666600716 -0.322206519850165
-0.291276481560972 0.325808803172193 -1.954047434256465
0.879651565595633 0.818017375747386 -1.515334988431126
1.076626062270017 0.682450386178496 -1.206176891692098
-0.499086226777589 0.024412486091197 -1.779556771184897
-0.042824360251896 0.179591835675759 0.950345576552096
-0.744415492228676 -0.121258776370494 0.711834526536660
0.097979143306025 -0.598941378740742 -0.388515323705098
0.424388741502004 -0.435366787461541 -0.246768309517932
-1.127440685783992 0.564641743318414 -1.853850720829174
-1.100832344514892 0.568626447426398 -1.839900187547230
-1.122254392483415 0.556401171574181 -1.853142116025670
1.086548698849327 1.506767818889238 -1.077958399153432
1.113454737554760 1.507154296887055 -1.081517329120631
1.083714218889482 1.518022534095038 -1.073896615269211
-1.317392963227242 0.185195584406867 -1.508676066376623
-1.318625363911715 0.184291355056420 -1.504738226344675
-1.314350832175946 0.185902115113457 -1.522132029763218
1.264531580927937 1.278835153832376 -0.598083117460063
1.270462302152387 1.307173689393653 -0.593476977871041
1.277438438881735 1.301676319207001 -0.572986341587939
-0.334712961574105 0.252523298711997 -1.946458401031648
0.965489534396186 0.799803911840480 -1.462342118259260
-1.392143208138810 0.490011747915779 -1.633935546920518
1.193973680781439 1.601862184969596 -0.691362086363396
-1.390508001537768 0.701812528809081 -1.709158194018588
1.092250338009254 1.748281613001298 -0.833832689350174
-1.442139503110640 0.653284660201824 -1.652471323787249
1.124252282414041 1.733672701517191 -0.746292670158923
-1.170430067369981 -0.188991672036270 0.393858913228432
0.399413751383350 0.491214280125474 0.942797494891957
1.164716182059744 0.888923242464955 0.249901291209231
-1.444787837628921 -0.227398281104096 -0.669848994811406
1.223175988066020 0.482760218706654 -0.779774131155730
-0.653528538528432 -0.330490586418297 -1.450025293109120
-1.336287388949692 -0.249193709963670 -0.939934953614454
-1.333506704893634 -0.270836601423131 -0.933383310080537
-1.325720599084460 -0.248858434800442 -0.946496705459233
1.252452569509388 0.873517649521890 0.005316098568444
1.254048688451350 0.843127584096654 0.006425086956992
1.257292784184868 0.851285399635647 0.011010273376363
-0.628597282017101 -0.183408580732701 -1.614096445359124
1.216323937070707 0.606031161958937 -0.960722855949607
-0.654816569042338 -0.437881148038488 -1.285548491989363
1.203733955484021 0.367149640214668 -0.642734349268871
-0.460186080219065 0.346345738995953 -2.009316566061914
0.982205886355617 0.948432547280240 -1.481459031026690
-1.325147152003790 0.244692616717918 -1.619070589383940
-1.317521987197276 0.265456809333283 -1.622719168865731
-1.324525687833659 0.252404394271396 -1.626075954836812
1.289508048435100 1.358805658434210 -0.687583431867149
1.285337854809490 1.373115844685127 -0.693578303002531
1.294729656341891 1.388055169454107 -0.693862601631434
-1.348313829053121 0.609404860716392 -1.744670884657639
1.138036314845068 1.685510858129417 -0.875022130506738
-0.478333818048741 0.091302654455570 -1.874600495855261
1.098691377884160 0.790522708588883 -1.312530658506476
0.620380978191087 -0.356023618705858 -0.184104338795989
-0.091418937576224 -0.663218978540187 -0.444637665879343
1.172903765332383 1.669876699442249 -0.800607332787159
-1.381965950091966 0.566961255817609 -1.707267046527003
-0.502381019860778 -0.613664732099753 -0.923884786328726
1.066001950266785 0.063172110598482 -0.345065345487995
-0.820133645269976 0.425115263104197 -1.973046114502553
1.115507443194126 1.252335543125430 -1.286519357211256
1.031621171697236 0.910791306661237 0.546918762664876
-1.541572530351131 -0.209535738461910 -0.381900036917503
-0.614439613408899 0.349122520719681 -2.004670275952350
1.053173400062215 1.104524988658580 -1.399743795718225
0.922429939390886 -0.118007773434646 -0.237705162131390
-0.390676747412862 -0.675108593768099 -0.710642623994489
-0.642178288597611 -0.127085425589545 -1.710027534874892
1.209916003970846 0.673210770892622 -1.039509048400823
-0.899757563938354 -0.183226435182954 0.631840129812283
0.123834599192125 0.264855436998003 1.022530812651836
-0.441256626938574 0.261960806449701 -1.993533472716403
1.017416942730044 0.883184014394626 -1.473727615036585
0.702763101037564 0.707950123186136 0.860512724604362
-1.431125627032755 -0.207353257760259 0.125959822044258
1.378155017391723 0.950792782246851 -0.415142543861441
-1.240602738065568 -0.175663047997834 -1.348191041470024
1.196707277965610 0.259415792267147 -0.478482199247306
-0.662546260159257 -0.547370961094446 -1.140845051257525
1.117830521742861 1.143392260482629 -1.350844495819904
-0.701137835499258 0.359026599893144 -1.997837682671000
1.110582816691762 0.820112705126211 0.465242834486385
-1.506099649761607 -0.290101593810091 -0.448357640201978
-1.287965494529757 0.344881591375905 -1.730333432554661
-1.290003878086594 0.332092877568871 -1.736740314182155
-1.306000889357537 0.335390767130271 -1.739023144261511
1.288594378239395 1.458270004887871 -0.807086890424727
1.267957563103317 1.450714054967941 -0.798664778863546
1.289753664719264 1.455709264641608 -0.810930723672694
-1.234989601960396 -0.048148124486315 -1.522796836603952
1.365797246364233 1.077728374716979 -0.574507489055767
-1.228723764054667 -0.281843203998909 -1.180398941156907
1.349596446630272 0.827536543098572 -0.264134892039177
-1.337008285537803 -0.382361390333018 -0.768964955241915
-1.328053919854584 -0.394056590076849 -0.774448092279964
-1.356792977391783 -0.397571545675745 -0.772256537778048
1.238740270913851 0.728138834154210 0.146914031510794
1.264665481843250 0.723733272379946 0.151001146009368
1.263689212686663 0.749228265192473 0.140844115192299
-0.475412387818079 0.174515122555094 -1.984632299752402
1.101328787264907 0.861205472348579 -1.402240683800988
-1.552989283627495 -0.206533179591994 -0.155345861139852
0.906493427701129 0.872352669898335 0.750219927934391
1.209606825880354 0.751142415402927 -1.170395722119202
-0.619032208548922 -0.037727745682405 -1.817023290057378
-1.009932137694307 0.424021768853501 -1.970329862289877
1.192138804988512 1.385341540894059 -1.178730888857078
-1.208778896530577 0.037916873147180 -1.605400078456270
1.387662980070956 1.166751792376634 -0.690045219380544
-1.439513562686991 -0.348947954322643 -0.496549429068691
1.155052580666816 0.751936809127603 0.408733730850793
-0.264588891476546 -0.746368964345992 -0.521677284394609
0.792694467673194 -0.308716707648106 -0.148252268525463
-1.252599225847098 0.484989291372213 -1.846460433300994
-1.234550963835846 0.481063095628417 -1.861886062222679
-1.249778772324394 0.465144815085152 -1.861456169341805
1.225168678679168 1.540556026750738 -0.982507230636845
1.220677974062621 1.547553383886980 -0.974160257289620
1.228058006542705 1.534273291668495 -0.963478812041261
-1.289583300616704 0.422595352740375 -1.815950404130212
-1.272169208029424 0.437794975709036 -1.834363607604889
-1.286386742314169 0.423967891219955 -1.819826648789635
1.268636913488684 1.535470160570836 -0.931341716503605
1.274618081992672 1.521897239727791 -0.913362246143911
1.273877430148766 1.517158135979836 -0.915886994282813
0.543567915750757 0.561277565664077 0.996431726056249
-1.318548647387197 -0.242706088443497 0.321334777727187
-0.607041654298092 0.289891462852556 -2.029555543154026
1.106098608852636 1.038675997479258 -1.430418521457910
-1.251219868561956 -0.401116271084219 -1.045089142883482
1.356803187303082 0.710289798182739 -0.112459445740825
1.353385009456932 0.561104985837285 -0.737617374638451
-0.771771713531260 -0.379165164929980 -1.502624150463344
0.275270206310467 0.334505396798895 1.042995732886433
-1.037203112521465 -0.241718731634428 0.585563854877602
-1.174704207599283 -0.240344186054991 -1.400295851681767
1.428293718523651 0.866815590387197 -0.495505134973474
0.244035501843868 -0.642711984127970 -0.147856443702485
-0.525504609120349 -0.743472016573798 -0.762098499001713
1.061395622553154 -0.062384929803099 -0.197947320181969
1.207634305542010 0.845038422176449 -1.276101100656529
-0.632630882659358 0.040823083442672 -1.920674213223757
-1.228606386351403 0.106352363193387 -1.711111325401340
1.371521778180830 1.234856360879099 -0.795209023549915
-0.770512230071201 -0.239995971923932 -1.636082357252937
1.353141646342749 0.673419798134224 -0.887992627833179
-0.795474221626013 -0.469093787826077 -1.319429445502598
1.338173067422982 0.422018416857846 -0.576817993883383
-0.638184584369682 -0.673795763773026 -0.980982538637666
1.181100428500981 0.114907366478954 -0.301746359919015
-1.172188445422429 -0.130669727787856 -1.565629025475805
1.430250915260146 1.008760327137708 -0.648516714508202
-1.193347141829010 -0.362709094337294 -1.231405964102423
1.405872194787413 0.777716642111978 -0.336553560665522
0.077470047184375 -0.719393442937724 -0.228689619166978
0.447328416434937 -0.554451957629445 -0.089971761755136
-0.573874808050573 0.191042771280082 -2.038542123001732
1.137825354124268 0.944793255418597 -1.423013684080413
-0.765578164744527 -0.158312250067023 -1.745622561739438
1.345308985820443 0.758559068330869 -0.979650034759958
-0.961327659679028 0.339108897378336 -1.996146225905028
1.249314367542254 1.292772237191524 -1.223993004385481
1.416663686410875 1.091778640769913 -0.732437602035793
-1.153816782088791 -0.044355721045221 -1.657267999510230
1.033271777954276 0.800229140707243 0.674961977338329
-1.539734848858348 -0.310574152846333 -0.218770077283700
-0.378658469194762 -0.077939951740282 0.970822605607729
0.923199090771280 -0.241248893643833 -0.104441338025469
-0.373798210403419 -0.813667655919117 -0.558783133296815
-1.217227631911107 0.182483729149298 -1.821184120557405
1.386566757498737 1.296426755060911 -0.900188410497728
1.343332119408989 0.324927760017596 -0.421223051358133
-0.808745466997683 -0.587464446967804 -1.160548106675250
-1.348490436605490 -0.492786518858997 -0.617825552873460
-1.333725939512197 -0.490768420562464 -0.612169539040345
-1.348300160296841 -0.509689092704953 -0.606532526946058
1.241582656326412 0.614332598254226 0.327868904751868
1.235438198440393 0.630537525198356 0.315453564656090
1.246726306459343 0.613378369280688 0.313128902294330
-0.559200133123955 -0.143533356458449 0.935437405292892
-0.230095029076637 0.006392215960208 1.057397588036923
-1.179575607476892 -0.464707882300365 -1.098339480902568
1.409603593732252 0.636785417501942 -0.148941134742193
-0.625065996704160 0.117994916467729 -2.038536523176351
1.226529613456270 0.923267115343160 -1.347871138501535
1.358627265477937 0.584977073815310 0.042878627737979
-1.237446806701475 -0.514385844221685 -0.884589532356190
-0.087410548063040 -0.800179710784660 -0.277029596064309
0.603638863456873 -0.496212559416066 -0.049254153195961
-0.765276709997451 -0.079754462502084 -1.852625036509554
1.365869731789013 0.827245241557682 -1.093804854464107
1.098963630939299 0.702221926160035 0.618897088958657
-1.502785587134158 -0.420044349407061 -0.279232894567006
-1.176819601695643 0.026082235505274 -1.759325166516179
1.411462979382071 1.142642712636138 -0.860474147583593
-0.729864939349265 0.242804877276782 -2.060625446216114
1.224393240798383 1.118308701420503 -1.364766730198018
-1.102884610140679 -0.336043011025972 -1.472649294178736
1.459756554585825 0.784573630989049 -0.532032214526773
-1.138474068954803 0.330142728415944 -1.953020570651492
1.320885147513063 1.393419752815391 -1.093337377731330
0.405016569764726 0.389315283547488 1.114339120743873
-1.166243362505419 -0.319006135004282 0.541647907642309
-1.198083159209714 0.287242118848245 -1.914720121261518
1.354358189946908 1.377578205524795 -1.020044264714317
-1.102666231057403 -0.206214672138821 -1.618706386541661
1.469454762606979 0.909297188689670 -0.693523108379091
-1.101881868226363 -0.449340236893772 -1.305419930541001
1.467473221297935 0.666251513436735 -0.393750738589336
-0.752695904579479 -0.225229926578199 0.847706388189280
-0.037093021458128 0.060986683331048 1.119647752256717
-0.874589422619572 0.270875979623333 -2.077488999975448
1.289879946591362 1.219472772031558 -1.304975252451057
-1.440687361969340 -0.474849541565021 -0.358985935925245
1.142635937630780 0.633720619171540 0.572444737540425
-0.661167108135031 -0.782174572988678 -0.802594847232328
1.195743218332273 0.000005597444676 -0.158202979620180
-1.544538227120993 -0.318552941557071 0.007538729828903
0.912818275847299 0.728157901616724 0.881670924622733
1.474667459994344 0.676831489741828 -0.643305989006015
-1.000319285665558 -0.389169209417025 -1.514232454262327
-1.439115488349480 -0.302503194781709 0.283716905656646
0.701918241999401 0.614003707741872 1.020309140944500
1.476198684463227 0.997282916604938 -0.817889118394726
-1.083829905001396 -0.114520659046397 -1.739829737455578
-0.764307498538908 -0.009937407854951 -1.967355054359023
1.352866733521007 0.922572543665253 -1.221183736223745
1.424261401432913 1.228653249329485 -0.973599557337305
-1.154409024517973 0.134138920163409 -1.885183992583495
1.333180850033231 0.179466205403338 -0.253920915803917
-0.787355658866645 -0.735800489089849 -1.004387601212990
-0.991278176651255 -0.275242094765595 -1.674592613066474
1.490287738715092 0.802037045022720 -0.808272455199062
1.476951741237519 0.548282219363059 -0.478775575811555
-0.984938972584990 -0.493146286300429 -1.335526008679154
-1.187959820376071 -0.598058565466078 -0.941890775887951
1.393269218824539 0.507084602695557 -0.017809371392604
-0.714989886476438 0.154512297247991 -2.083665231528932
1.292139579277685 1.001045571079878 -1.389772403558391
-0.265540126150922 -0.856522518604981 -0.346362558792159
0.781688620532393 -0.412563392208130 0.039322099119566
1.043500898710429 -0.178817776323606 -0.042566751790283
-0.521980237055365 -0.843695508768997 -0.614272581282682
-1.120651719762836 -0.574008585299396 -1.160329907694368
1.455547472387302 0.558384997588544 -0.227977082642031
-0.987686683950894 -0.200649657597842 -1.757756545234342
1.494627895739459 0.888412203962026 -0.891041356618729
1.492975616031428 1.060704750475804 -0.904913834959626
-1.102709161740661 -0.040675421866959 -1.850761099505925
-1.092711217811543 0.252844597007507 -2.022409582598339
1.383031131867172 1.341947875006068 -1.137614709136653
-1.138508201740461 0.199381497714059 -1.993454916322084
1.425142636061738 1.308338993273919 -1.088933275288058
-1.245611928888328 -0.632269418401215 -0.697344610145653
1.332921261340762 0.477249514107591 0.209517942635971
-0.756223850743780 0.094745743276338 -2.071283346503145
1.334730703851444 1.012866064588159 -1.315575968695689
-1.010630938637479 -0.609083668845929 -1.207169749418314
1.459373175874641 0.449031874967036 -0.303821523287102
-0.907884360757833 -0.320154632926275 0.798796697358194
0.113952670986100 0.147567704252351 1.160143186272373
-1.343844881337446 -0.627334391609512 -0.459220794993764
-1.363004606292038 -0.636147964391350 -0.447487075335942
-1.354022931381168 -0.626110022601137 -0.435446815439145
1.233653646446968 0.497311505750447 0.460763780174449
1.228595697233611 0.509807620228038 0.474364472932440
1.235903343494690 0.486872199197829 0.460707285674016
-0.975083181072532 -0.107167382095484 -1.863145239945579
1.478971062927831 0.941241650319645 -0.991972966970282
0.236982231247427 -0.771970104308676 0.001595148777326
1.028273068047785 0.678764299126422 0.859412138309099
-1.547106851226246 -0.440938857016958 -0.071732348990458
1.464615252489896 1.138832784692482 -1.013982056510765
-1.084385055051816 0.048608882837294 -1.951763367080022
0.526308709159711 0.436568630997234 1.162067219735537
-1.311189417514163 -0.379080671516818 0.491801020508138
-0.387407911105589 -0.913750728084102 -0.383646510009599
0.921924598820522 -0.344970705367172 0.079583921772140
0.427798366245221 -0.678058925747188 0.063602486436321
0.061227985471120 -0.833194264126254 -0.071870140267715
-1.112342805425946 -0.676463407322082 -0.983760879588482
1.445097448107174 0.439128343733346 -0.052290016909138
-0.802430670828397 -0.834492687000768 -0.837604203399695
1.328864107791895 0.071539707375874 -0.086006949634850
-1.195319297831761 -0.705307003832780 -0.774226712844476
1.407901557175395 0.400287089301941 0.148487944883552
-1.037948838906907 0.183495724304248 -2.069927006493251
1.427961190345531 1.251963170758571 -1.204668587439049
-1.509888984049609 -0.510278984165523 -0.145570936988750
1.078254550905572 0.584957485374506 0.782959266771313
-0.980490100390063 -0.011928359435796 -1.992904622269940
1.468111263268528 1.023238007543486 -1.119972985701096
-1.076723593542283 0.130567538036266 -2.037552290358887
1.460506883343720 1.233461614588485 -1.149982692999324
-0.678011767483667 -0.924106915126774 -0.662683806496505
1.187713883441210 -0.121718035273349 0.016847253983346
0.242013588203602 0.199353451826002 1.227317262056812
-1.044689536163512 -0.361993035967168 0.742060928884401
-0.883792236212752 0.124878745204764 -2.123161834491527
1.402911054263669 1.105139458847310 -1.279680640157265
1.452575471071406 0.313805416227768 -0.160070689898853
-1.018387523547322 -0.743495514238686 -1.023314542748539
-0.083349638982316 -0.911307516298009 -0.111034095536604
0.597630300494797 -0.620525680012440 0.137247719338839
-1.448001327501638 -0.590983409589760 -0.186121981659534
1.152701888299084 0.529985829038499 0.735016015421675
1.447860697393246 1.092134908395533 -1.225986659599550
-0.939034335654992 0.062579326369064 -2.073254497948946
-1.238957864927148 -0.767926334995750 -0.564589868209212
1.347168267270975 0.366627993986522 0.369866829941657
-0.530531204516519 -0.978845986090205 -0.452522436644292
1.041970592561811 -0.287552356644591 0.121509725732219
0.883788013163135 0.615581648535271 1.069294976287616
-1.553269455644193 -0.445830991191223 0.192954720699456
1.435896756262179 0.314355543744110 0.100750973895988
-1.143104851142204 -0.809266183772314 -0.824546634295602
-0.394775326653934 -0.196938861559103 1.151162373879252
-0.287063327445000 -0.992869575090174 -0.190043978769316
0.780737908945461 -0.544715622361159 0.174215447825757
-0.580837014982937 -0.291569574811567 1.097746456752768
-0.216289534160237 -0.119475786018111 1.219026284915288
0.669145232865049 0.467463899150469 1.187679194195850
-1.444193519827456 -0.431022688061511 0.444015753168909
-1.178463590279333 -0.429715854625205 0.698197877015501
0.380833051600072 0.267836889248130 1.250465114372869
-1.366358422778908 -0.729437899014039 -0.276455822283410
-1.356130916324615 -0.750774187654099 -0.291089545324610
-1.352412654254824 -0.749988340352397 -0.276256628154781
1.251254699187833 0.392965607017297 0.623410125854216
1.245144937736274 0.374705872218690 0.646004164856668
1.226856020056396 0.372018540382642 0.636116581533153
1.456692761066804 0.193459853546685 0.004392492426137
-1.015079479312927 -0.860907291861164 -0.879987509542739
-0.797249083919161 -0.977152503275315 -0.674118275095477
1.326972815778674 -0.058665023085358 0.061775767925336
-1.202754437398910 -0.843433369543731 -0.613504761155300
1.388088359410419 0.294717864722052 0.317038629237930
-0.763567856382425 -0.337229606769268 1.016814951874970
-0.049264264109003 -0.053577930498594 1.270365020519255
-1.565755893420968 -0.562764669632509 0.104257681606640
1.017450743860417 0.553175813058710 1.023351022561945
-0.406656944196609 -1.027360899770121 -0.231759793963375
0.892120078663379 -0.475865336885371 0.219117700451065
-0.680686442553564 -1.036762129061989 -0.492900835985412
1.183685835724037 -0.224122669274797 0.157026376449991
0.258872546280539 -0.868346978078679 0.158207099158368
1.093463995420649 0.485200800559120 0.967108350221814
-1.495784654381316 -0.660248486759012 0.025090156092393
0.056096443731388 -0.951573582655838 0.088016845847468
0.418078173366793 -0.806487179294237 0.223322676398164
1.439836906211858 0.195328918746284 0.243495432452158
-1.137091831260851 -0.932665689577229 -0.660446236177213
-0.934890936346303 -0.442382379903497 0.964621203205440
0.133824699248902 0.028935953001352 1.325242071748834
-1.305623062242595 -0.485447961354833 0.657820223117838
0.532692855383162 0.302803007253346 1.312618418326259
1.136000667257382 0.411770544139539 0.889246512010255
-1.455472709606427 -0.728894471529154 -0.033010036897648
-1.266977132813284 -0.898257071531020 -0.409308208046386
1.328518732876410 0.222989306670837 0.526872267214105
-0.100984589273071 -1.045680928188167 0.031006429935674
0.588043565275656 -0.720311197872624 0.282751729718535
1.458548419325034 0.080393530215658 0.150671047679065
-1.026396329159444 -0.986902693751047 -0.713307847547630
-0.544117752931502 -1.086019096957941 -0.287034212492232
1.032802369771572 -0.426847883190678 0.264691600684494
-0.827595998245960 -1.097998749825642 -0.512788025669566
1.299059156321374 -0.162332662874002 0.244962893888516
-1.582623930501866 -0.560970351244999 0.345634267638258
0.878509613940751 0.500082644970019 1.219216046466594
-1.048144931245021 -0.473778314692060 0.899697537144350
0.237841556365548 0.094581746122409 1.364889967269884
-1.200725308707246 -0.950431752889571 -0.461195589098450
1.391290991902552 0.158083636707525 0.480810735140242
1.246529928106488 0.270272481215128 0.786008233007720
2.568547996890914 0.201239865394501 0.220612605200024
3.255129163449508 -0.173793003441024 1.441246407986769
-0.096111964013085 -0.154331326292990 -2.198764206024006
0.879701086842362 2.089425897709981 1.993749709301841
-0.321366914295213 -0.593677047149207 -1.766657027303671
-1.128541824489546 0.943254677521092 -0.525425253630891
0.746742722963906 -1.460717791430159 -1.024608886868952
0.876229247314638 0.271669087269979 3.148488778366002
2.959231053953482 1.236102535368544 -0.449501218587652
-1.653923721427907 -2.271791897555561 2.087000275077795
1.548109368843765 -0.228148136814581 2.772038977638420
0.148493332265363 -0.097527400772900 0.264685701364575
0.620814666361014 0.128138845179889 0.213819891404868
0.069004199134610 -1.330137266382048 -1.276623693418653
2.656244125330139 -1.338419333250874 -1.120750096507861
0.720727934306257 0.040274127740607 0.685048050663977
-2.255874555042440 0.714494657193669 0.574227930318177
-0.315749115089879 2.078730204385540 1.767575571967454
-2.063558843186438 3.207007252565632 0.576929044137957
0.331013535557586 3.096776253032158 -2.969736920454817
1.866349811778068 -1.045050578568602 0.885656197396551
-1.837307529221672 1.001130796148560 0.720767135758869
-0.469612955303333 -1.102369490086750 -0.841665421797380
0.267631953365586 -1.910249735533616 -2.166757360247466
0.890871719978343 -2.158927499295682 2.665516996287485
0.748931112667531 0.035625351100051 -0.784329352665909
-0.174158793213701 1.655565039301753 0.977021747640049
2.973462796092878 -0.445306861938466 -1.313372261316291
-1.455680457021991 -0.627915021281904 0.706798106657127
-0.197424248459712 1.538100234144310 2.437190187707121
3.123705369267316 0.219733687079023 -0.326232443753913
-1.312105222729270 2.959574000074322 -0.203725077086569
-0.008380983479181 -3.464163687842964 -1.307777781672674
-1.174410254409863 -0.669914805401136 -1.695536068770254
-1.171916348268097 -0.376972535418329 1.640492035984884
1.461990894749430 0.614117143148668 -0.116130012932595
0.188027031995486 1.879011173477219 0.192351473403848
0.489735646228250 -0.498395301792810 -0.897959330539754
-1.064986351413769 1.957087088596842 -3.846441534943652
-0.254412189127043 0.784788923819026 0.444359163891128
-0.302262860738913 0.255637629004817 1.025368564101153
1.573067949550442 1.282961882295938 1.269876863143414
0.949163414970581 0.141846020804756 1.825347199760836
0.818058881021703 0.432069036847635 0.680823826285627
-0.330479924636069 -1.511061333222388 -1.702140412000274
-0.907003407096576 -0.129935821598762 0.537162609099277
-0.772492174700353 -0.632793104979423 -0.095725356956922
2.991105565303239 0.720307363136334 -0.038724222655747
-1.381372100940738 -0.069331912008565 -1.856039894699050
1.553741619419250 0.132179869999207 1.906721466549057
-0.508296738586827 -1.712725988147246 -0.334983801017340
-0.020386824775676 -3.003814800043297 -0.439720608837144
0.772805859634193 1.081844317303921 -2.490739714472399
0.954526964615158 0.137899040675776 0.131566300364439
1.249909583445237 -1.421397923629867 -0.550036731706139
-0.354308920754747 0.433600304149333 0.658641493008972
-0.857699997128333 -0.065279953182729 0.408750464963300
0.725477651693626 -3.086401365086268 1.092456096817256
-0.242975857294186 -1.573889883048734 1.056871690846406
-1.175366890606007 -0.820643993300860 0.873589841012201
0.383249982568407 2.290608853853336 1.507113148466232
0.456156888509548 0.747090482534692 -1.419294568926383
-1.121934017062704 1.507014338295525 0.368425591636376
-0.135829957938161 -1.585495114739987 0.556713262107134
0.447966150800713 -0.044952607374838 -3.685295745180534
2.330850560332076 0.736335279503308 -0.663671849189566
-0.503355753768254 -2.513446246157996 0.446927965844567
0.965744598220722 0.125010803147641 -0.248044290654181
-1.243969295757734 3.141949678262553 -2.693537968655750
-1.149561912758785 0.843783866396581 -1.072266478603193
-1.383187597610573 -1.393558121180255 -0.851631081101662
-0.944231589582264 -0.671746309812965 1.040170420674630
0.064315427858781 -0.966633447948670 0.037415236213598
-1.981926858534681 -0.117116727376049 -0.322045022979276
2.927361983530202 -0.250155483743695 1.412236716873680
-0.820021956164625 0.590712049947266 0.688023982084338
-0.858736186667066 -0.426133493718177 0.262510251690017
-1.470667189746787 -0.259871709395542 -0.918183541617660
0.093403797846815 -0.175673151947194 1.588772471895137
2.104232613327408 -0.399632595202704 1.960355062271490
2.051443080919316 -1.555050635576110 1.973918700124880
1.560933037677720 0.072429087703856 -1.170569591757168
1.029024420713451 -1.472477412776870 -1.862963840291496
-1.255441563685618 0.282808314497099 0.279532347440392
-0.828430110568432 -0.697993665019552 1.000953206918731
2.232283503105109 1.788492336643360 -1.760130027408485
-0.148454832191839 -1.205613883192277 0.523372201842739
-0.991627212294951 1.095033059496890 2.483204147439074
1.048329103444842 -1.216642502369884 -0.327198275750818
-0.617716595050659 -1.344842765291435 1.768274649625013
-2.257949294672692 3.816951212049196 -1.912571904902196
-1.031792241948373 -1.956010289867577 0.809181150696031
0.881855626747901 -0.867325353769626 2.645625557022238
-0.674011757747841 -1.214222186712923 1.887298278308055
-3.220228322940747 1.557568085892012 -0.844509753368924
-1.419437405258976 0.946934613449639 0.040674607522272
0.938038524837786 -1.999887437286451 -1.569120246924222
1.351817810661260 0.981047553094680 1.124590271844736
-1.128386856275618 1.801622121233487 0.318582850852094
1.251847107508197 1.132747665338925 0.354010348961290
0.696852619997087 1.660736135661753 0.499424290132209
-1.996196337483783 0.123821337306161 1.106342114964641
0.332958055184126 1.174685442162197 1.154894851039847
3.978318677980037 -0.509169591701928 0.579347723931340
0.828552878932005 -1.621056470293499 -0.398670551997859
2.097279944043084 -1.856960764892445 -0.124209886278204
1.303659397116387 0.634974506360167 1.633759133388592
-0.768485211174037 2.382354191451125 -0.910187394482974
1.423516365514321 -2.542064649561685 -2.026718533216655
-0.358625589588726 2.477937321314104 -1.224668241589221
0.149367457442950 -1.110573693977764 -2.457704554781374
0.574179108780874 0.475949012646423 -0.531471414592819
1.705977227060089 0.471938170574062 -2.432698847457483
0.960530081684598 -0.459466729407565 -0.830617999233156
-2.162282291175714 -2.780296865319886 -0.751250826436730
1.551534026781648 0.985127092849059 1.594526151075204
1.541655180454810 2.586347986732751 -1.967241235016742
0.134378173219674 -1.986715369343050 1.487275311309908
-0.327778376027515 -0.775512883661651 1.105730083216363
-1.396195889189368 -0.719333072021608 -1.355250688727060
0.152486344045867 0.118535678480820 -0.775548487187480
-0.289886943256738 -0.921295493961148 0.906816942170416
0.733288265020360 -0.807461032531698 0.649000226589364
-1.774177523069193 -0.436772574017863 -0.316696864250028
-1.025054237866291 -1.304365429176579 -1.002859302382348
-0.164893347352770 2.257196241569560 -0.097934707479489
-1.165204705956983 -0.670680580402522 -1.343278248279677
1.539624981689395 0.432837638093871 2.112080951455357
-0.046819881545068 -2.686856753717172 2.113016487650913
0.342324656534323 1.578797127304121 -0.130460969056627
1.754540826440285 -0.567500009003114 -1.987618836583847
-0.473150444602037 -0.446308302686417 4.092555195789790
-0.069459933756317 0.076797325990729 -2.335920002345246
0.995078704607105 1.566118813634684 0.796585607594024
0.706957785348985 -0.266912436828150 -2.427311396675928
2.032326587929148 -0.219545960122675 1.879620507261844
-0.222705333238274 -1.248277146466433 -0.818440435242779
0.087310628775109 -0.385883550052901 -0.136955756292574
0.217660458181284 0.938756240222444 -0.651468295312632
0.259548560912383 -0.950117627373526 -1.491987513500816
0.488137515620225 -0.091948390173856 -0.598977393790084
1.874105645634716 -0.191829465564296 -0.445592114921915
1.315695065943204 -1.068345627024015 -0.070543979581752
2.313326097402246 -0.667316725226564 -1.486409138822695
-0.100603828138586 0.431100054396517 1.951663428055580
1.512799226321809 0.431732138834668 -0.338205064118430
2.514447452718809 1.606233465733202 -0.743772099670677
1.333226228127809 -1.598261359478158 -2.143087851971704
-0.788943409627807 -0.939283260502019 -0.361253333142824
1.016784843957612 -0.895300400382135 -0.627881360250298
-0.269715653620182 -3.400894317801991 0.782991693696604
1.749533320612328 2.528403500694550 -0.283709448485743
-1.922763870473853 0.166847071180782 0.261662249197423
0.294831171906689 0.972077640839361 0.437851684347504
0.834352849146890 -0.847922165744978 0.658112253653704
2.511657926544563 -1.018941009353516 1.398614338818910
-1.253086767251685 -1.010458836760566 0.987657454090528
-0.800120772602424 1.981117509400784 -0.276138060583054
-1.540442826629751 -1.343769395931158 0.329739215647469
-2.315160606231121 1.697709303206581 -0.071521091044538
0.871412072764899 -1.650183318210592 -0.351047609214273
-1.043590272243763 -0.205887220739891 -2.061267708505573
2.492429652477430 0.275198733859860 -0.381569225992660
-0.601146517419635 2.204500569589430 -4.109987252461544
-4.232807540141703 -1.286481002449222 0.545504704638218
-0.533261664682102 -1.071043912713534 1.726569177160530
0.806837476488255 -2.151580974939105 -0.167334530221138
0.059351780330731 1.478189942140477 -1.174227396995133
1.527802422702698 -2.127114751165331 0.407056486664512
2.749204256039376 -0.783954452862778 0.724587786142975
-0.412396648989524 -0.983347424424804 -0.309556190861582
-0.846920213642390 0.520389199570071 -1.245826959226067
0.126193008416333 2.445678130111030 -0.120911840317992
-0.519089792380280 -0.206283943377141 0.208080963757493
-0.542376691378785 0.264689497468349 0.464246648364882
0.831038884337682 0.578702345070686 0.577177666555832
0.129486614012141 -0.058488769425216 1.036782680290694
-2.455199659980004 -0.516078271827790 -1.868459376672029
-0.638691084033011 2.195608029897794 -2.097710017929134
-0.635789433892679 -1.064543284970061 1.869463362224981
2.782999414920432 0.667349471714436 -1.785411523068219
-0.667701108908068 -0.373536161037563 2.654875787802856
0.703751835585508 1.099532838976849 1.131603067739318
0.322190716461702 2.101324725700120 -1.745319762087006
0.927728710739153 -0.211991006615200 -1.036252194357967
-2.740811589194523 -1.481094916658720 -1.218748376048537
1.077381977004053 -2.186176571451155 0.062238062251000
3.150457256809394 2.319179787741928 -0.449257706327936
-3.778151643718054 -0.088002308375331 0.658065006257861
-0.328690168098821 -0.586325918613989 0.973877277827127
-2.150292160637381 -0.859855179630112 -0.988984465476739
